# .PCD v0.7 - Point Cloud Data file format
VERSION 0.7
FIELDS x y z rgb
SIZE 4 4 4 4
TYPE F F F F
COUNT 1 1 1 1
WIDTH 1061
HEIGHT 1
VIEWPOINT 0 0 0 1 0 0 0
POINTS 1061
DATA ascii
-4.0044656 1.4148331 11.289883 3.1343067e-39
-4.0027423 1.3877511 11.277672 3.4105363e-39
-4.0085077 1.368876 11.251963 3.4108964e-39
-4.621141 0.2134397 12.332353 9.9578805e-39
-4.6213098 0.18056582 12.352386 1.0972727e-38
-4.6000357 0.22942342 12.284774 7.1156871e-39
-4.6001625 0.19656317 12.30483 1.1062388e-38
-4.6002107 0.1637287 12.324928 1.0972727e-38
-4.5795398 0.21238872 12.256993 1.1153829e-38
-4.5796843 0.17952269 12.27704 1.0972727e-38
-3.6602373 1.4428477 11.461147 3.0421125e-39
-3.6625786 1.4256009 11.467566 3.2268653e-39
-3.6653411 1.4084328 11.474849 3.5963709e-39
-3.6580119 1.3893764 11.461415 4.2424661e-39
-3.6502225 1.3702338 11.447037 4.5324368e-39
-3.641022 1.4606304 11.460608 2.8577198e-39
-3.6433342 1.4433782 11.466966 3.0421139e-39
-3.6464629 1.4262787 11.475 3.3194224e-39
-3.6487043 1.4090132 11.481215 3.9655163e-39
-3.6424179 1.3901519 11.469921 4.3343002e-39
-3.6356673 1.3712035 11.457675 4.4395209e-39
-3.6246243 1.4612554 11.467463 2.8577212e-39
-3.6263325 1.4438901 11.472582 2.9499154e-39
-3.6299434 1.4268808 11.481606 3.3190623e-39
-3.6333337 1.4098303 11.490179 4.0577119e-39
-3.6258776 1.3907501 11.476484 4.4268602e-39
-3.619334 1.3718406 11.464664 4.2544066e-39
-3.6098871 1.3523878 11.446883 1.6592322e-38
-3.6084788 1.4619277 11.474837 2.9495567e-39
-3.6106603 1.4446509 11.480928 2.9499168e-39
-3.61514 1.4278042 11.491736 3.2268667e-39
-3.6187179 1.4107889 11.500693 3.8729591e-39
-3.611547 1.391762 11.487585 4.3350247e-39
-3.605325 1.3729126 11.476424 4.0692937e-39
-3.5956731 1.3534214 11.458222 1.6037701e-38
-3.5929081 1.4627074 11.483392 2.8573611e-39
-3.5954678 1.4455014 11.490258 2.9499168e-39
-3.6004479 1.4287485 11.502094 3.134671e-39
-3.60343 1.4116215 11.509828 3.9655163e-39
-3.5974505 1.3928176 11.499165 4.4268616e-39
-3.5912259 1.3739678 11.487998 3.9763722e-39
-3.582315 1.3546153 11.471318 1.5576359e-38
-3.576664 1.4633611 11.490563 2.8573611e-39
-3.5792885 1.4461673 11.497562 2.8577226e-39
-3.5846939 1.4294939 11.510271 2.9502784e-39
-3.5874634 1.4123272 11.517569 3.8729577e-39
-3.5820343 1.3936262 11.508036 4.4272217e-39
-3.5758705 1.3747878 11.496995 3.9749218e-39
-3.5671561 1.3554721 11.480718 1.54838e-38
-3.5608971 1.4641042 11.498714 2.8577198e-39
-3.5633652 1.4468811 11.505393 2.8577212e-39
-3.568897 1.4302313 11.518361 3.0421139e-39
-3.5714941 1.4130324 11.525305 3.5963695e-39
-3.5659726 1.3943142 11.515582 4.3361107e-39
-3.5599654 1.375505 11.504862 4.0656699e-39
-3.5510335 1.3561486 11.488138 1.5390883e-38
-3.5452588 1.4648713 11.50713 2.8573611e-39
-3.5476658 1.4476367 11.513682 2.8577212e-39
-3.5524526 1.4308475 11.525122 2.9502784e-39
-3.5554683 1.4137269 11.532925 3.3194224e-39
-3.5491462 1.394859 11.521558 4.2439137e-39
-3.5433218 1.376084 11.511213 4.1564194e-39
-3.5333843 1.3565394 11.492425 1.5022099e-38
-3.5294216 1.4656012 11.515137 2.8573611e-39
-3.5313151 1.4482706 11.520636 2.8577212e-39
-3.5348058 1.4312389 11.529413 3.0421139e-39
-3.538481 1.4142417 11.53857 3.3190609e-39
-3.5308802 1.3951343 11.524579 4.1502719e-39
-3.525532 1.3764485 11.515212 4.4297553e-39
-3.5156696 1.356918 11.496578 1.3823561e-38
-3.5139821 1.4487206 11.525572 2.9499168e-39
-3.5165687 1.4315196 11.532494 3.0421139e-39
-3.5199354 1.4144647 11.541018 3.319421e-39
-3.5127156 1.3954287 11.527808 4.3357492e-39
-3.5082407 1.3769063 11.520234 4.5215894e-39
-3.4987056 1.357437 11.502273 1.2166211e-38
-3.4981353 1.4494487 11.533559 2.9499168e-39
-3.4996855 1.4320538 11.538354 2.950277e-39
-3.5039423 1.4151654 11.548704 3.3194196e-39
-3.4949894 1.395805 11.531937 4.4279462e-39
-3.4903502 1.3772519 11.524026 4.521588e-39
-4.1683373 0.4886601 11.62408 1.5965742e-38
-4.1663022 0.4823308 11.600038 1.5965742e-38
-4.1580644 0.47651652 11.575857 1.5965742e-38
-4.1614408 0.47164682 11.654442 1.6242683e-38
-4.1671524 0.46467429 11.630575 1.6242683e-38
-4.1627879 0.45853841 11.606482 1.6150489e-38
-4.1579013 0.45244586 11.582376 1.6150489e-38
-4.1725564 0.44473076 11.55871 1.6057935e-38
-4.1589069 0.44777301 11.660908 1.8270239e-38
-4.1643038 0.44082662 11.637033 1.6150848e-38
-4.162498 0.43447825 11.612997 1.6242683e-38
-4.156342 0.42849112 11.588863 1.6242683e-38
-4.1688757 0.42095211 11.565149 1.614977e-38
-4.1415267 0.43163019 11.691034 1.9742837e-38
-4.1544657 0.4240576 11.66733 1.7533045e-38
-4.1615548 0.41697067 11.643494 1.6151206e-38
-4.1601863 0.410586 11.619468 1.6244118e-38
-4.1611943 0.40400401 11.595494 1.6335595e-38
-4.1680613 0.39693558 11.571653 1.6511689e-38
-4.1710215 0.39019147 11.547724 9.7753684e-39
-4.1334605 0.4082157 11.697375 2.0938132e-38
-4.1509833 0.4002625 11.673774 1.7441208e-38
-4.1587372 0.39312044 11.649953 1.6244118e-38
-4.1582317 0.38666412 11.625946 1.6244118e-38
-4.1607366 0.37995782 11.602006 1.6243759e-38
-4.163229 0.37325257 11.578067 1.6243759e-38
-4.1687398 0.36629674 11.554195 1.7054052e-38
-4.1345401 0.38404191 11.703922 2.0938132e-38
-4.148859 0.37635469 11.680248 1.753412e-38
-4.1558843 0.3692731 11.656411 1.670473e-38
-4.1558542 0.36277729 11.632415 1.5968613e-38
-4.15132 0.35665548 11.608317 1.5968613e-38
-4.1627455 0.34920853 11.584579 1.6244118e-38
-4.1597915 0.3429555 11.560516 1.4934635e-38
-4.1454005 0.35255766 11.686693 1.7442286e-38
-4.1514721 0.34555525 11.662834 1.6612536e-38
-4.1511545 0.33908331 11.638831 1.6612536e-38
-4.145669 0.33304048 11.614712 1.6336312e-38
-4.1566701 0.32562879 11.590964 1.6151565e-38
-4.1437221 0.32861283 11.693177 1.6889838e-38
-4.1503844 0.32156137 11.669332 1.6520342e-38
-4.1501822 0.31507987 11.645331 1.6611819e-38
-4.1440849 0.30908781 11.621199 1.6611819e-38
-4.1558852 0.30160975 11.597468 1.6243042e-38
-4.1518655 0.29735419 11.675887 1.6428865e-38
-4.1500998 0.29100248 11.651852 1.6428865e-38
-4.1451859 0.2849122 11.627746 1.6428865e-38
-5.2494097 0.86147952 13.127593 1.3195197e-38
-5.2493558 0.82968658 13.135327 1.9275387e-38
-5.2315526 0.8550235 13.100938 2.2575355e-38
-5.2315526 0.8232227 13.108641 1.6789006e-38
-5.2311606 0.79147953 13.116581 2.1578828e-38
-5.2140837 0.88031137 13.066346 1.2271077e-38
-5.2142372 0.84848803 13.073956 2.2575355e-38
-5.2142239 0.81668919 13.081666 1.6520698e-38
-5.2138762 0.78493947 13.089579 2.1947246e-38
-5.1967473 0.873779 13.039375 1.2271077e-38
-5.1969814 0.84194374 13.046936 2.2575355e-38
-5.1969604 0.81014603 13.054651 1.6520698e-38
-5.1966915 0.77838475 13.062516 2.1026738e-38
-5.1970129 0.74653679 13.070024 2.1763216e-38
-5.1796165 0.8354156 13.019983 1.9462662e-38
-5.1796103 0.80361569 13.027689 1.9187875e-38
-5.1792784 0.77186364 13.035593 2.1026738e-38
-5.1796384 0.74000996 13.043077 2.1763216e-38
-5.1622915 0.82888144 12.993006 1.9462662e-38
-5.1623249 0.79707581 13.000688 2.102638e-38
-5.1619887 0.76532435 13.008595 2.1026738e-38
-5.1442771 0.7906478 12.974149 2.0843068e-38
-5.1436419 0.75894028 12.982237 1.7900383e-38
-3.4826138 1.1076407 11.588223 1.9924354e-38
-3.4815464 1.0933747 11.587801 1.9924354e-38
-3.4795446 1.0789596 11.585826 2.1477263e-38
-3.4790213 1.0647804 11.586308 1.5956667e-38
-3.4796066 1.0507778 11.588634 1.2988379e-38
-3.477885 1.0364075 11.587124 3.5996149e-39
-3.4765317 1.0220958 11.586226 3.9655051e-39
-3.4769037 1.0080593 11.588198 3.6925392e-39
-3.4777365 0.99409628 11.590934 1.3082742e-38
-3.4764044 0.97978801 11.590072 1.4492069e-38
-3.4765432 0.96571434 11.591655 1.4492069e-38
-3.4705973 1.1083567 11.595685 1.880283e-38
-3.4698527 1.0941421 11.5958 1.880283e-38
-3.4683566 1.0798076 11.594665 1.8528404e-38
-3.4675777 1.0655876 11.594723 1.4759245e-38
-3.4679592 1.0515527 11.596709 1.3358608e-38
-3.4661303 1.037165 11.595021 3.6003393e-39
-3.4644692 1.0228043 11.593612 3.9655051e-39
-3.4647613 1.0087551 11.595449 3.6921776e-39
-3.4660728 0.99486846 11.598983 1.2897987e-38
-3.4648011 0.98056984 11.598221 1.4399875e-38
-3.4650562 0.96651471 11.599998 1.4399875e-38
-3.4593804 1.1092001 11.604476 1.1252969e-38
-3.4586763 1.094992 11.604659 1.1252969e-38
-3.4573596 1.0806862 11.603822 5.1017984e-39
-3.4564111 1.066439 11.603598 9.9626533e-39
-3.4562678 1.0523204 11.604712 1.3450805e-38
-3.4540761 1.0378749 11.60242 3.7836502e-39
-3.4524171 1.0235145 11.601014 4.0569791e-39
-3.4527771 1.0094762 11.602965 3.7840103e-39
-3.4543099 0.99562484 11.606866 1.2897267e-38
-3.4530933 0.98133498 11.606196 1.4400233e-38
-3.4534485 0.96729583 11.608139 1.4400233e-38
-3.446703 1.1098106 11.61084 1.9250226e-38
-3.4460011 1.0956029 11.611025 1.9250226e-38
-3.4445531 1.0812761 11.60997 1.5038374e-38
-3.4434502 1.0670043 11.609489 1.4213328e-38
-3.4440188 1.0529993 11.611787 1.4096899e-38
-3.4419599 1.0385751 11.609716 3.6921762e-39
-3.4401546 1.0241913 11.608068 4.0566203e-39
-3.4405003 1.0101506 11.609994 3.7836488e-39
-3.4421377 0.99631596 11.614069 1.2620677e-38
-3.4411008 0.98205471 11.613698 1.4031455e-38
-3.4415429 0.96802944 11.615785 1.4031455e-38
-3.4350479 1.1105841 11.618902 1.9250226e-38
-3.4346159 1.0964195 11.619536 1.9250226e-38
-3.4323783 1.0819668 11.617169 2.157127e-38
-3.4311304 1.0676719 11.616446 1.7898499e-38
-3.4324095 1.0537801 11.619925 1.4466393e-38
-3.4305179 1.0393826 11.618134 3.7843733e-39
-3.428123 1.0249047 11.615504 4.0569819e-39
-3.4283957 1.0108525 11.61731 3.8751213e-39
-3.4304559 0.99708521 11.622087 1.1975308e-38
-3.4292655 0.98279953 11.62146 1.3847067e-38
-3.4295983 0.96875679 11.623366 1.3847067e-38
-3.4228125 1.1112652 11.626 2.2771607e-38
-3.4216335 1.0969813 11.625392 2.2771607e-38
-3.4195497 1.0825531 11.623281 2.157127e-38
-3.4196045 1.0684661 11.624724 1.7898499e-38
-3.4195213 1.0543569 11.625938 1.4466393e-38
-3.4185293 1.040103 11.625641 3.8762074e-39
-3.4166956 1.0257146 11.623945 3.9655093e-39
-3.416522 1.0115911 11.62501 3.7829257e-39
-3.4177716 0.99769461 11.628439 1.0685296e-38
-3.4165733 0.98340762 11.627799 1.3109867e-38
-3.4169428 0.96937078 11.629766 1.3109867e-38
-3.4098642 1.1118325 11.631913 2.1118214e-38
-3.4088461 1.0975742 11.631573 2.1118214e-38
-3.4073696 1.083243 11.63047 1.3480794e-38
-3.4071853 1.0691178 11.631516 1.3277646e-38
-3.4071314 1.0550133 11.632779 1.4189091e-38
-3.4061174 1.0407557 11.632446 3.8762074e-39
-3.4040675 1.026333 11.63039 4.0569847e-39
-3.4039185 1.0122133 11.631495 3.8744011e-39
-3.4053519 0.99834621 11.63523 1.0316876e-38
-3.4043677 0.98409343 11.634947 1.2647813e-38
-3.4047875 0.97006452 11.636997 1.2647813e-38
-3.3973379 1.1124671 11.638527 2.157775e-38
-3.3963799 1.0982184 11.638288 2.157775e-38
-3.3950086 1.0839039 11.63736 1.4855449e-38
-3.3948183 1.0697777 11.638395 1.382974e-38
-3.3950698 1.055722 11.640166 1.4373127e-38
-3.3961225 1.0417941 11.643269 4.0602399e-39
-3.3939636 1.027354 11.641031 4.0569847e-39
-3.393508 1.0131855 11.641626 3.8744011e-39
-3.3936293 0.99910903 11.643181 1.0316876e-38
-3.3921759 0.98478138 11.642117 1.2647813e-38
-3.3926218 0.97075665 11.644211 1.2647813e-38
-3.3851657 1.1131581 11.64573 2.2772688e-38
-3.3841679 1.0989032 11.645424 2.2772688e-38
-3.3824465 1.0845327 11.643914 2.2861649e-38
-3.3812356 1.0702438 11.643253 2.166415e-38
-3.382772 1.056393 11.64716 1.5205399e-38
-3.3828998 1.0423176 11.648726 4.4286595e-39
-3.3803866 1.0278209 11.645899 4.0573462e-39
-3.3800206 1.0136667 11.646643 3.8744011e-39
-3.3812654 0.99976951 11.650065 1.0132847e-38
-3.3801005 0.98548788 11.649481 1.2554538e-38
-3.3805723 0.97146732 11.651618 1.2554538e-38
-3.372283 1.1137359 11.651752 1.6058293e-38
-3.3715725 1.0995268 11.651923 1.5323609e-38
-3.3702691 1.0852231 11.651109 1.5323609e-38
-3.3695154 1.071007 11.651208 1.412472e-38
-3.3703787 1.0570489 11.653996 1.4008683e-38
-3.3700078 1.0428939 11.654732 4.7048834e-39
-3.36745 1.0283902 11.651832 4.1495432e-39
-3.3671637 1.0142486 11.652708 3.9665981e-39
-3.3686116 1.0003837 11.656467 9.8566241e-39
-3.3677745 0.98615444 11.656428 1.2370147e-38
-3.3682117 0.97212833 11.658507 1.2370147e-38
-3.3603623 1.114467 11.659373 9.8909559e-39
-3.3597105 1.1002673 11.659642 9.1548384e-39
-3.3585384 1.0859846 11.659046 9.1548384e-39
-3.3577919 1.0717696 11.659157 1.0249628e-38
-3.357712 1.0576611 11.660377 1.40058e-38
-3.3575301 1.0435363 11.661427 4.9807472e-39
-3.3552327 1.029074 11.658959 4.1495432e-39
-3.3549271 1.0149294 11.659803 4.0584322e-39
-3.3559198 1.0009919 11.662807 9.6729545e-39
-3.3550971 0.98676491 11.662791 1.2369786e-38
-3.3554015 0.97271764 11.66465 1.2369786e-38
-2.9902012 0.74305618 11.933043 2.323402e-38
-2.9859953 0.71552885 11.932537 2.3325856e-38
-2.9833951 0.68835312 11.934019 2.3325856e-38
-2.986027 0.66232258 11.941981 2.3325856e-38
-2.9853823 0.63557482 11.945885 2.3325856e-38
-2.9855769 0.60901082 11.950828 2.3325138e-38
-2.9864647 0.58259857 11.95663 5.1608029e-39
-2.9689205 0.7459538 11.949439 2.323402e-38
-2.964596 0.7184006 11.948786 2.3325856e-38
-2.9621415 0.69125664 11.950448 2.3325856e-38
-2.9647286 0.66521633 11.958354 2.3325856e-38
-2.9640572 0.63846278 11.962225 2.3325856e-38
-2.9642291 0.61189383 11.96714 2.3325497e-38
-2.9679849 0.58610928 11.976495 5.3484564e-39
-2.9661613 0.55910349 11.978938 5.4475212e-39
-2.948442 0.74902707 11.966827 2.323402e-38
-2.9444602 0.72154886 11.966599 2.3325856e-38
-2.9420888 0.69442314 11.968364 2.3325856e-38
-2.9446135 0.66836911 11.976193 2.3325856e-38
-2.9439116 0.64160889 11.980026 2.3325856e-38
-2.9440885 0.61504102 11.984947 2.3325497e-38
-2.9448447 0.58859992 11.990586 5.348455e-39
-2.9443932 0.56189448 11.99473 5.4478827e-39
-2.9445527 0.53532279 11.99963 5.9106615e-39
-2.9271336 0.75191861 11.983189 2.323402e-38
-2.9233224 0.72447777 11.983171 2.3325856e-38
-2.9208372 0.69732714 11.984795 2.3325856e-38
-2.9236414 0.67133439 11.99297 2.3325856e-38
-2.9228697 0.64455879 11.996717 2.3325856e-38
-2.9230933 0.61800116 12.001697 2.3325497e-38
-2.9239688 0.59158617 12.007483 5.0990084e-39
-2.9234266 0.56486088 12.011514 5.2624082e-39
-2.9226396 0.53808194 12.015242 5.7266304e-39
-2.9191935 0.51072103 12.015676 5.6337131e-39
-2.9057684 0.75479782 11.999479 2.3234379e-38
-2.9021029 0.7273888 11.999641 2.323402e-38
-2.8996451 0.70024419 12.0013 2.3325856e-38
-2.902355 0.67423075 12.009358 2.3325856e-38
-2.9017022 0.64748126 12.013252 2.3325856e-38
-2.9019244 0.62092322 12.01823 2.3325497e-38
-2.9024088 0.5944227 12.023533 5.3763142e-39
-2.9011459 0.56753963 12.02667 5.0758506e-39
-2.9012604 0.54095805 12.031515 5.6340732e-39
-2.8981609 0.51367301 12.032378 5.4496806e-39
-2.8856087 0.75794083 12.017263 2.3234379e-38
-2.8823633 0.73062378 12.017946 2.3234379e-38
-2.8802993 0.70356542 12.020092 2.3326215e-38
-2.8828847 0.67752469 12.027996 2.3325856e-38
-2.8819437 0.65071207 12.031533 2.3325856e-38
-2.8822131 0.62416446 12.03657 2.3325856e-38
-2.8825793 0.59763801 12.041725 5.9305599e-39
-2.8800011 0.570467 12.043234 4.8914607e-39
-2.881047 0.54408932 12.049232 5.3556829e-39
-2.8776774 0.51674515 12.049761 5.5415161e-39
-2.8812525 0.49092114 12.058891 5.3567633e-39
-2.8612497 0.733558 12.034548 2.3326215e-38
-2.8593092 0.70652664 12.036847 2.3326215e-38
-2.8617926 0.68046361 12.044625 2.3326215e-38
-2.8608661 0.65365422 12.04818 2.3325856e-38
-2.861135 0.62710643 12.053215 2.3325856e-38
-2.8616867 0.60062057 12.058601 6.299697e-39
-2.8597441 0.57358873 12.060898 4.8929026e-39
-2.8603773 0.54712075 12.066384 5.3567633e-39
-2.857002 0.51977527 12.066906 5.4496806e-39
-2.8606024 0.49395677 12.076068 5.5422363e-39
-2.8391807 0.73628312 12.049967 2.3234379e-38
-2.8369856 0.70919597 12.05195 2.3326215e-38
-2.839505 0.68314087 12.059773 2.3326215e-38
-2.8388984 0.65640146 12.063725 2.3326215e-38
-2.8391571 0.62985146 12.068748 2.3326215e-38
-2.8401926 0.60347152 12.074732 7.1301625e-39
-2.8368375 0.57613051 12.075279 4.7085114e-39
-2.8381875 0.54981935 12.081654 5.1712916e-39
-2.8348796 0.52248871 12.082259 5.3571248e-39
-2.8382845 0.49662739 12.091178 5.2652935e-39
-2.8153684 0.71201998 12.067929 2.3234379e-38
-2.8175366 0.68588799 12.075317 2.3326215e-38
-2.8173745 0.65924585 12.079819 2.3326215e-38
-2.8176618 0.63270217 12.084877 2.3326215e-38
-2.8180847 0.60618812 12.090103 7.4992982e-39
-2.8157401 0.5790683 12.091902 4.6152339e-39
-2.8170824 0.55275548 12.098266 4.7992595e-39
-2.8112655 0.52487552 12.095764 4.4312014e-39
-2.8167748 0.49947491 12.10729 4.7088701e-39
-2.7965207 0.68884361 12.09204 2.3326215e-38
-2.7959919 0.66212124 12.096087 2.3326215e-38
-2.7962434 0.63556963 12.101101 2.3234379e-38
-2.7965624 0.60903287 12.106198 1.8733005e-38
-2.795778 0.58225459 12.10993 1.5033594e-38
-2.7959311 0.55568147 12.114821 7.7405023e-39
-2.7927608 0.52838087 12.115598 9.7633915e-39
-2.795716 0.50242114 12.12396 1.0592068e-38
-2.7746298 0.66500109 12.112382 2.3234379e-38
-2.7749321 0.63846058 12.117458 2.3234379e-38
-2.7753253 0.61194009 12.122648 2.3142544e-38
-2.7743013 0.58510929 12.126082 2.2774839e-38
-2.7733245 0.55828887 12.129575 1.2734237e-38
-2.7722473 0.53144646 12.132943 1.2276497e-38
-2.7738791 0.50519699 12.139667 1.7155263e-38
-3.9705558 0.52296877 11.754808 4.4261287e-39
-3.938693 0.54798639 11.72446 4.3332114e-39
-3.9389191 0.53996277 11.75909 4.2410172e-39
-3.9393144 0.5324353 11.793847 4.4257672e-39
-3.9037905 0.56410182 11.691867 4.0566287e-39
-3.9040685 0.55623078 11.726537 4.0566259e-39
-3.9046676 0.54930007 11.761444 4.425407e-39
-3.9057589 0.54381078 11.796714 4.425407e-39
-3.9071882 0.53931099 11.832232 4.425407e-39
-3.8695734 0.56485426 11.72871 4.2406571e-39
-3.8702722 0.55821538 11.76369 4.3332142e-39
-3.8718476 0.55414391 11.799317 4.3332142e-39
-3.837688 0.57243508 11.767274 7.9317291e-39
-4.0029049 0.38035011 11.932811 5.3560388e-39
-3.9838057 0.41322091 11.927581 5.3560374e-39
-3.9633071 0.44424576 11.920592 8.2058076e-39
-2.7604136 0.55329895 12.168417 2.2958873e-38
-2.7601559 0.53450388 12.177957 2.2867036e-38
-2.7598021 0.51568937 12.187459 2.2315664e-38
-2.7593281 0.4968504 12.196914 2.1856126e-38
-2.7579744 0.47783309 12.206022 2.0937054e-38
-2.7568102 0.61934316 12.158573 2.3050708e-38
-2.7567019 0.60057843 12.168173 2.3142544e-38
-2.7566726 0.58182973 12.177803 2.3050708e-38
-2.7567375 0.56310004 12.187469 2.2958873e-38
-2.7568066 0.54437131 12.197139 2.2867036e-38
-2.7565978 0.52558619 12.206698 2.2774842e-38
-2.7565355 0.50683075 12.216315 1.7254562e-38
-2.7564533 0.48807126 12.225924 1.5497822e-38
-2.7565084 0.4693397 12.235588 9.2458247e-39
-2.7531562 0.61040604 12.187277 2.3142544e-38
-2.7532218 0.59167653 12.196944 2.3142544e-38
-2.7539084 0.57307303 12.206857 2.3142544e-38
-2.7544367 0.55443734 12.216706 2.2867036e-38
-2.7532125 0.53544629 12.225865 1.9002381e-38
-5.1272283 1.1136279 12.87545 2.1297918e-38
-5.1271443 1.0833521 12.877963 1.8168326e-38
-5.127202 1.0530694 12.880392 1.8722223e-38
-5.1272674 1.0227864 12.882817 2.2774123e-38
-5.1116452 1.1115134 12.849457 2.1297918e-38
-5.1116042 1.0812354 12.851945 1.8168326e-38
-5.1116443 1.0509536 12.854384 1.8722223e-38
-5.11163 1.0206745 12.856856 2.2038362e-38
-5.1115904 0.99039644 12.859343 1.98246e-38
-5.0960302 1.1396803 12.821019 1.3101555e-38
-5.0960999 1.1093971 12.823442 2.1297918e-38
-5.0960708 1.0791185 12.825922 1.8168326e-38
-5.0961046 1.0488371 12.828365 1.8722223e-38
-5.0960722 1.0185586 12.830848 2.2038362e-38
-5.0960498 0.98827988 12.833324 1.98246e-38
-5.0974383 0.95793307 12.834966 1.2456187e-38
-5.0805597 1.1072805 12.797423 2.0745468e-38
-5.0805402 1.0770015 12.799898 1.6051078e-38
-5.0805759 1.0467199 12.802341 1.8542871e-38
-5.0805268 1.0164423 12.804832 2.0015112e-38
-5.0805302 0.98616225 12.807294 1.8069646e-38
-5.0650148 1.0748842 12.77387 1.6051078e-38
-5.0650287 1.0446036 12.776326 1.8542871e-38
-5.0649748 1.0143263 12.778821 2.0015112e-38
-5.0650058 0.98404491 12.781266 1.8069646e-38
-3.5105057 1.1036701 11.565448 1.2251899e-38
-3.5097971 1.0898715 11.565502 1.2251899e-38
-3.5090005 1.0760598 11.565409 1.0802021e-38
-3.508719 1.0623256 11.566175 1.1812676e-38
-3.5092561 1.0487148 11.568309 1.2250094e-38
-3.5085189 1.034912 11.568315 3.5992519e-39
-3.5065012 1.0209161 11.566184 3.9655051e-39
-3.5067596 1.0072633 11.567852 3.8769318e-39
-3.5079024 0.99374378 11.570996 1.354553e-38
-3.5078158 0.980039 11.572088 1.354553e-38
-3.5081363 0.96639556 11.573859 1.5321458e-38
-3.4980004 1.1041983 11.571296 1.3194139e-38
-3.4974217 1.0904193 11.571567 1.0346131e-38
-3.4965692 1.076599 11.571381 1.0346131e-38
-3.4962773 1.0628633 11.572129 1.2366842e-38
-3.4967384 1.0492411 11.574136 1.2527399e-38
-3.4968593 1.0355676 11.575575 3.5996135e-39
-3.4945629 1.0215297 11.572978 4.0573378e-39
-3.4944255 1.0078173 11.573986 3.7847348e-39
-3.4954357 0.99427778 11.576908 1.3544446e-38
-3.4953568 0.98057413 11.578013 1.3544446e-38
-3.4957011 0.96693432 11.579824 1.495304e-38
-3.4862316 1.1048374 11.578373 1.9924354e-38
-3.4856448 1.0910573 11.578629 2.1477263e-38
-3.4844744 1.0771891 11.577913 2.1477263e-38
-3.4842763 1.0634675 11.578819 1.5956667e-38
-3.484921 1.049873 11.581132 1.2988379e-38
-3.4844427 1.0361091 11.58157 3.5996149e-39
-3.4823315 1.0220991 11.579284 3.9655051e-39
-3.4823115 1.0084044 11.580487 3.6925392e-39
-3.4835913 0.99490559 11.583859 1.3082742e-38
-3.4835112 0.98120177 11.584962 1.3082742e-38
-3.4839277 0.96757281 11.586894 1.4492069e-38
-3.4754517 1.1056257 11.5871 1.9924354e-38
-3.4743326 1.0917653 11.586469 2.1477263e-38
-3.4731596 1.0778967 11.585748 2.1477263e-38
-3.4729981 1.0641806 11.586715 1.5956667e-38
-3.4737935 1.0506088 11.589279 1.2988379e-38
-3.4732847 1.0368403 11.589666 3.5996149e-39
-3.4712336 1.0228394 11.587481 3.9655051e-39
-3.4712408 1.0091488 11.588729 3.6921776e-39
-3.4723854 0.99562961 11.591876 1.2897987e-38
-3.4722979 0.98192471 11.592966 1.2897987e-38
-3.4726958 0.96829289 11.594867 1.4399875e-38
-3.4638355 1.1062878 11.594432 1.880283e-38
-3.4631541 1.0924934 11.594531 1.8528404e-38
-3.462142 1.0786492 11.594079 1.8528404e-38
-3.4619281 1.0649252 11.594958 1.4759245e-38
-3.4627259 1.0513537 11.597527 1.3358608e-38
-3.4622672 1.0375928 11.597998 3.6003393e-39
-3.459841 1.0235354 11.595185 3.9655051e-39
-3.4598081 1.0098387 11.596367 3.6921776e-39
-3.4611778 0.99635339 11.599889 1.2897987e-38
-3.4610851 0.98264766 11.600971 1.2897987e-38
-3.4615018 0.96901876 11.602903 1.4399875e-38
-3.4521239 1.1069357 11.601604 1.1252969e-38
-3.4514699 1.0931454 11.601749 5.1017984e-39
-3.4505467 1.0793145 11.601445 5.1017984e-39
-3.4503253 1.0655894 11.602312 9.9626533e-39
-3.4509134 1.0519863 11.60453 1.3450805e-38
-3.4502008 1.0381871 11.604578 3.7836502e-39
-3.4480026 1.0241641 11.602146 4.0569791e-39
-3.448029 1.0104764 11.603427 3.7840103e-39
-3.4494262 0.99699515 11.606995 1.2897267e-38
-3.4493394 0.98329031 11.608087 1.2897267e-38
-3.44998 0.96969515 11.610393 1.4400233e-38
-3.4403648 1.1075764 11.608698 1.9250226e-38
-3.4397056 1.0937853 11.608834 1.5038374e-38
-3.4387584 1.0799507 11.60849 1.5038374e-38
-3.4383969 1.0662045 11.609123 1.4213328e-38
-3.4392054 1.0526346 11.611709 1.4096899e-38
-3.4382825 1.0388038 11.611405 3.6921762e-39
-3.436094 1.0247822 11.60899 4.0566203e-39
-3.4361286 1.0110956 11.610285 3.7836488e-39
-3.4376237 0.99762928 11.614016 1.2620677e-38
-3.437535 0.98392415 11.615105 1.2620677e-38
-3.4382763 0.97034419 11.617579 1.4031455e-38
-3.4295363 1.1083573 11.617344 2.2771607e-38
-3.4282217 1.0944674 11.616386 2.157127e-38
-3.4269907 1.0805901 11.615569 2.157127e-38
-3.4264901 1.0668229 11.61597 1.7898499e-38
-3.4277773 1.0533252 11.619354 1.4466393e-38
-3.4269543 1.0395094 11.619218 3.7843733e-39
-3.424648 1.02547 11.616606 4.0569819e-39
-3.4245543 1.0117642 11.617686 3.8751213e-39
-3.4259977 0.99829 11.621331 1.1975308e-38
-3.4258869 0.98458153 11.622383 1.1975308e-38
-3.4264679 0.97097737 11.624589 1.3847067e-38
-3.416935 1.108871 11.623032 2.1118214e-38
-3.4156907 1.0949917 11.622191 1.3480794e-38
-3.4147654 1.0811604 11.621883 1.3480794e-38
-3.4147692 1.0674694 11.623127 1.3277646e-38
-3.415386 1.0538706 11.625393 1.4189091e-38
-3.4155519 1.0402038 11.626906 3.8762074e-39
-3.4134505 1.0261953 11.624636 3.9655093e-39
-3.4130781 1.0124475 11.625251 3.7829257e-39
-3.4136651 0.99884415 11.627467 1.0685296e-38
-3.4135549 0.98513579 11.62852 1.0685296e-38
-3.4143305 0.97156101 11.631051 1.3109867e-38
-3.4047768 1.1094514 11.629458 2.157775e-38
-3.4034579 1.0955609 11.628494 1.4855449e-38
-3.4027038 1.0817555 11.628472 1.4855449e-38
-3.4027431 1.0680697 11.629775 1.382974e-38
-3.4034033 1.0544775 11.632113 1.4373127e-38
-3.4034052 1.040786 11.633353 4.0602399e-39
-3.4006793 1.0266834 11.63004 4.0569847e-39
-3.4003706 1.0129452 11.630761 3.8744011e-39
-3.4015908 0.99943733 11.634034 1.0316876e-38
-3.4014747 0.98572809 11.635077 1.0316876e-38
-3.4024057 0.97217667 11.637868 1.2647813e-38
-3.3926926 1.110043 11.636009 2.157775e-38
-3.3914812 1.0961688 11.635224 1.4855449e-38
-3.3907757 1.0823706 11.635283 1.4855449e-38
-3.3903878 1.0686204 11.635873 1.382974e-38
-3.3916094 1.0551128 11.639149 1.4373127e-38
-3.3933311 1.0416806 11.643258 4.0602399e-39
-3.390753 1.0276003 11.640192 4.0573462e-39
-3.3901825 1.0138226 11.640477 3.8744011e-39
-3.3901243 1.0001221 11.641617 1.0132847e-38
-3.3899963 0.98641104 11.642639 1.0132847e-38
-3.3905451 0.97280198 11.644792 1.2554538e-38
-3.3671234 1.1217158 11.653898 1.4861919e-38
-3.366653 1.1055868 11.654556 1.6058293e-38
-3.3658652 1.089413 11.654704 1.5323609e-38
-3.3648741 1.0732107 11.654527 1.412472e-38
-3.3648336 1.0571423 11.655873 1.4008683e-38
-3.3651998 1.0411311 11.657872 4.7048834e-39
-3.3621709 1.0246416 11.654427 4.1495432e-39
-3.3621356 1.0085739 11.655782 4.0584322e-39
-3.3633616 0.99268401 11.65916 9.6729545e-39
-3.3627102 0.97652948 11.659527 1.2369786e-38
-3.3624325 0.96042764 11.660493 1.2830399e-38
-3.3543065 1.1225847 11.663786 8.2300235e-39
-3.3534186 1.1063968 11.663774 9.8909559e-39
-3.3524051 1.0901914 11.66356 9.1548384e-39
-3.3513284 1.0739769 11.663245 1.0249628e-38
-3.3510306 1.0578722 11.664179 1.40058e-38
-3.3523307 1.0419928 11.667676 4.9807472e-39
-3.3488755 1.0254431 11.663547 4.2410186e-39
-3.3488102 1.0093712 11.664853 4.1499062e-39
-3.3496785 0.99343079 11.667658 9.4889262e-39
-3.3487694 0.97723997 11.667611 1.2276868e-38
-3.3482847 0.96110898 11.668246 1.632481e-38
-3.3399558 1.1232375 11.671213 2.165881e-38
-3.3395956 1.107124 11.672048 2.2861651e-38
-3.338073 1.0908467 11.671018 2.2677621e-38
-3.3366091 1.0745777 11.670082 2.1109894e-38
-3.3369851 1.058568 11.672096 1.4105182e-38
-3.3387766 1.0427577 11.676381 6.1774799e-39
-3.335429 1.0262232 11.672424 4.3332142e-39
-3.3351805 1.0101255 11.673437 4.2417417e-39
-3.3357384 0.99414146 11.675743 9.0290354e-39
-3.3349526 0.97796798 11.675895 1.2276508e-38
-3.3343189 0.96181595 11.676291 1.8173737e-38
-3.3262804 1.1239854 11.679724 2.0200578e-38
-3.3256478 1.1078335 11.680121 2.1395157e-38
-3.32424 1.0915724 11.679276 1.9739607e-38
-3.3230362 1.07534 11.678757 1.8537323e-38
-3.3230159 1.0592746 11.680136 1.4286681e-38
-3.3247948 1.0434625 11.6844 6.5458995e-39
-3.3222682 1.0270437 11.68176 4.2413801e-39
-3.3218694 1.0109248 11.682532 4.3339373e-39
-3.3218317 0.99485677 11.683884 8.9375601e-39
-3.3212118 0.97870672 11.6843 1.2368341e-38
-3.3207226 0.96257508 11.684928 1.9739964e-38
-3.3106284 1.1244547 11.685065 1.3941764e-38
-3.310164 1.1083266 11.685732 1.2285493e-38
-3.3093503 1.0921493 11.685839 9.2495452e-39
-3.3085988 1.0759805 11.686045 9.4169121e-39
-3.3081856 1.0598596 11.686794 1.4556442e-38
-3.3104494 1.044116 11.691836 6.3618726e-39
-3.3093221 1.0278944 11.69144 4.2413801e-39
-3.3086638 1.011739 11.691796 4.4257728e-39
-3.3072886 0.99548244 11.691002 8.8457246e-39
-3.3068964 0.97936445 11.691785 1.2460174e-38
-3.3066702 0.96326983 11.692834 1.9833595e-38
-3.2972021 1.1252378 11.693974 2.0831909e-38
-3.2967591 1.1091126 11.694676 2.0739003e-38
-3.2958519 1.0929221 11.694633 1.7152056e-38
-3.2950606 1.0767479 11.694776 1.5658101e-38
-3.2948291 1.0606525 11.695816 1.4373487e-38
-3.296119 1.0447717 11.699296 7.2823814e-39
-3.2950044 1.0285518 11.69892 4.3335758e-39
-3.2940545 1.0123552 11.698809 5.0722296e-39
-3.2936797 0.99623972 11.699619 8.7538919e-39
-3.2940791 0.98023331 11.701672 1.2459809e-38
-3.2942274 0.9641915 11.703321 1.9833596e-38
-3.2852647 1.1262306 11.705273 2.2864882e-38
-3.2846725 1.1100845 11.705734 2.2864882e-38
-3.2836618 1.0938793 11.705525 2.1211844e-38
-3.2826285 1.0776711 11.70528 1.9355752e-38
-3.2826684 1.0616139 11.706756 1.3185818e-38
-3.2840641 1.0457479 11.710405 8.1103274e-39
-3.2811522 1.0292748 11.707148 4.6105326e-39
-3.2806838 1.0131462 11.707808 4.611613e-39
-3.2814431 0.99719042 11.710437 8.2943585e-39
-3.2820725 0.98121643 11.712858 1.2459809e-38
-3.2824275 0.96520376 11.714839 1.9833596e-38
-3.2711086 1.1269108 11.713012 1.8451756e-38
-3.2710133 1.1108347 11.714271 2.2865241e-38
-3.2701354 1.0946482 11.714275 2.268157e-38
-3.2693121 1.0784695 11.714366 2.25865e-38
-3.2692099 1.0623925 11.715614 1.2731681e-38
-3.2702856 1.0464814 11.718751 8.0184919e-39
-3.2664561 1.029879 11.714021 4.3339373e-39
-3.2660525 1.0137594 11.714786 4.3339373e-39
-3.2677293 0.99793297 11.718886 8.2943585e-39
-3.2687187 0.98200971 11.721885 1.236653e-38
-3.2691221 0.96600384 11.723943 1.9833236e-38
-3.2566063 1.1275423 11.720197 1.5314952e-38
-3.2565308 1.1114689 11.721487 2.0472473e-38
-3.2557313 1.0952935 11.721617 1.8633993e-38
-3.2551184 1.0791445 11.722046 1.8812467e-38
-3.2550466 1.0630716 11.723342 1.3642407e-38
-3.2560205 1.0471462 11.726315 8.1106917e-39
-3.2529137 1.0306456 11.722745 4.3339373e-39
-3.2525201 1.0145274 11.723525 4.3342974e-39
-3.2536607 0.99862546 11.726767 7.8344649e-39
-3.2547174 0.98271167 11.729873 1.2456914e-38
-3.2551098 0.96670431 11.731914 1.9465178e-38
-3.2426054 1.1282443 11.728186 8.5183154e-39
-3.2421525 1.1121178 11.72887 1.1999872e-38
-3.2413526 1.0959424 11.728999 9.0490138e-39
-3.2408156 1.0798039 11.729549 8.5879011e-39
-3.2408612 1.0637476 11.731034 1.3363683e-38
-3.2420478 1.0478522 11.734349 8.2028873e-39
-3.2395597 1.0314388 11.731771 4.3339387e-39
-3.2391384 1.0153167 11.732507 4.3342974e-39
-3.2397473 0.99933988 11.734895 7.4664069e-39
-3.240556 0.98339111 11.737603 1.2456188e-38
-3.2406673 0.96734411 11.739194 1.9281507e-38
-3.2290397 1.1290077 11.736872 1.9524181e-38
-3.2288404 1.1129169 11.737964 1.3003562e-38
-3.2280738 1.0967462 11.738146 1.733502e-38
-3.2275479 1.0806093 11.738714 1.9434522e-38
-3.2275436 1.064546 11.740119 1.3742149e-38
-3.2290621 1.0486974 11.743966 8.8468134e-39
-3.2283828 1.0325389 11.744288 4.3342988e-39
-3.227617 1.0163683 11.744472 4.3342988e-39
-3.2267978 1.0001901 11.74457 7.2823772e-39
-3.2272384 0.98418951 11.746688 1.2546936e-38
-3.227807 0.96820688 11.749011 1.9281507e-38
-4.8662748 1.0711641 12.437942 1.5318942e-38
-4.8651748 1.0451041 12.43768 1.3101914e-38
-4.867363 1.019117 12.435395 1.9464457e-38
-4.8669686 0.99307257 12.434699 2.0191574e-38
-4.8511243 1.0979657 12.417627 1.0889586e-38
-4.8526707 1.0719644 12.415737 1.5318942e-38
-4.8515778 1.0459045 12.415471 1.3101914e-38
-4.8537259 1.0199164 12.413211 1.9464457e-38
-4.8533354 0.99387217 12.412513 2.0191574e-38
-4.8379521 1.1248112 12.396095 1.0151299e-38
-4.8374228 1.0987638 12.395483 1.0520803e-38
-4.8388495 1.0727597 12.393666 1.7057299e-38
-4.8379407 1.0467039 12.393288 1.3101914e-38
-4.8391662 1.0206954 12.391595 1.8899027e-38
-4.839674 0.99467111 12.390344 2.0191574e-38
-4.8243089 1.1516463 12.374853 1.0059102e-38
-4.8246665 1.1256185 12.373695 1.0151299e-38
-4.8241243 1.0995708 12.373091 1.0520803e-38
-4.8255935 1.0735677 12.371248 1.7424279e-38
-4.8246627 1.0475115 12.370882 1.2549464e-38
-4.8261352 1.0215085 12.369038 2.1930653e-38
-4.825665 0.99546236 12.368389 1.3109118e-38
-4.810894 1.1524506 12.352532 1.0059102e-38
-4.8112688 1.1264232 12.351363 1.0151299e-38
-4.8106833 1.1003746 12.350786 1.0520803e-38
-4.8122454 1.0743736 12.348886 1.7424279e-38
-4.8112626 1.0483161 12.348553 1.2549464e-38
-4.8128414 1.0223155 12.346642 2.1930653e-38
-4.812314 0.99626815 12.346029 1.3109118e-38
-4.7965584 1.1532346 12.330778 1.0059101e-38
-4.7969136 1.1272068 12.329622 1.0151299e-38
-4.7963371 1.1011584 12.329039 1.0243855e-38
-4.7978497 1.0751563 12.327169 1.7424279e-38
-4.7972932 1.0491083 12.326573 1.5133115e-38
-4.7984161 1.0230975 12.324944 2.1930653e-38
-4.7992191 0.99707967 12.323511 2.0475724e-38
-4.7823191 1.1540208 12.308966 1.0059101e-38
-4.7825971 1.1279912 12.307856 1.0243855e-38
-4.7819152 1.1019405 12.307337 1.033605e-38
-4.7838407 1.0759475 12.305214 1.7332444e-38
-4.7832627 1.049899 12.304631 1.5133115e-38
-4.7846518 1.0238942 12.302838 2.2023199e-38
-4.76897 1.1548266 12.286604 1.0059101e-38
-4.7692909 1.1287981 12.285468 1.0243855e-38
-4.768671 1.1027486 12.284912 1.033605e-38
-4.7703409 1.07675 12.282946 1.7332444e-38
-4.7697935 1.0507022 12.282344 1.5133115e-38
-4.7554159 1.155628 12.264369 1.0059101e-38
-4.7557974 1.1296008 12.263196 1.0151659e-38
-4.7551665 1.103551 12.262646 1.033605e-38
-4.7562032 1.0775384 12.26107 1.0520443e-38
-3.3428037 -0.0011617284 11.908249 2.3142183e-38
-3.301543 1.127142 11.688334 2.0831909e-38
-3.3013592 1.1102607 11.68967 2.0739003e-38
-3.3004053 1.0932603 11.689773 1.7152056e-38
-3.2996957 1.0762976 11.690267 1.5658101e-38
-3.2993653 1.0593938 11.691368 1.4373487e-38
-3.3006308 1.0427372 11.695026 7.2823814e-39
-3.2997644 1.0257504 11.69527 4.3335758e-39
-3.2995133 1.0088588 11.696498 4.4257728e-39
-3.2983108 0.99181974 11.696202 8.8457246e-39
-3.298599 0.97501177 11.698296 1.9833595e-38
-3.2981849 0.95809495 11.699263 2.0385685e-38
-3.2885783 1.1282222 11.699496 2.2864882e-38
-3.2883534 1.1113347 11.700768 2.2864882e-38
-3.2872822 1.094316 11.700682 2.1211844e-38
-3.2864413 1.0773331 11.700966 1.9355752e-38
-3.2865169 1.0604922 11.702718 1.3185818e-38
-3.2876289 1.0438119 11.70613 8.1103274e-39
-3.2847424 1.0265118 11.703137 4.6105326e-39
-3.2848067 1.0096691 11.704871 5.0722296e-39
-3.2853467 0.99290019 11.707367 8.7538919e-39
-3.2862585 0.97618884 11.710459 1.9833596e-38
-3.2856879 0.95924777 11.711176 2.010982e-38
-3.2743387 1.1291049 11.708618 1.8451756e-38
-3.2744226 1.1122653 11.710383 2.2865241e-38
-3.2734025 1.0952545 11.71038 2.268157e-38
-3.2726502 1.0782852 11.710806 2.25865e-38
-3.272722 1.0614438 11.712552 1.2731681e-38
-3.2737842 1.0447557 11.715884 8.0184919e-39
-3.2706251 1.0274134 11.712455 4.5186957e-39
-3.2705932 1.0105559 11.714034 4.611613e-39
-3.2713356 0.99381828 11.716855 8.2943585e-39
-3.2726846 0.97717476 11.720646 1.9833236e-38
-3.2720327 0.96022105 11.721232 2.0477879e-38
-3.2593441 1.1298705 11.71653 1.5314952e-38
-3.2594726 1.1130378 11.718367 2.0472473e-38
-3.2585354 1.0960399 11.718496 1.8633993e-38
-3.2580218 1.0791076 11.719304 1.8812467e-38
-3.2579021 1.0622364 11.720743 1.3642407e-38
-3.2587852 1.0455208 11.723789 8.1106917e-39
-3.2554829 1.0281562 11.72013 4.3339373e-39
-3.2553575 1.0112841 11.72156 4.3339373e-39
-3.25651 0.99461013 11.725038 7.8344649e-39
-3.2581141 0.97800612 11.729238 1.9465178e-38
-3.2575011 0.9610585 11.729886 2.029385e-38
-3.2445261 1.1306636 11.724725 8.5183154e-39
-3.2443447 1.1137829 11.726065 1.1999872e-38
-3.24349 1.0967977 11.726327 9.0490138e-39
-3.2429898 1.0798675 11.727156 8.5879011e-39
-3.2430155 1.0630189 11.728828 1.3363683e-38
-3.2442596 1.0463591 11.732452 8.2028873e-39
-3.2414308 1.029068 11.729551 4.3339387e-39
-3.2413723 1.0122063 11.73109 4.3342974e-39
-3.2420242 0.99545467 11.733764 7.4664069e-39
-3.2429206 0.97874099 11.736831 1.9281507e-38
-3.2423463 0.96179926 11.737541 2.0110537e-38
-3.2299247 1.1314902 11.733266 1.9524181e-38
-3.2298892 1.114632 11.73484 1.3003562e-38
-3.2289526 1.0976342 11.734971 1.733502e-38
-3.2285039 1.0807121 11.735883 1.9434522e-38
-3.2285795 1.0638711 11.737635 1.3742149e-38
-3.2301724 1.0472654 11.741817 8.8468134e-39
-3.228632 1.030174 11.740981 4.3342988e-39
-3.2283623 1.0132796 11.74218 4.3342988e-39
-3.2278192 0.99634272 11.742941 7.2823772e-39
-3.2287393 0.97963268 11.746045 1.9281507e-38
-3.2281723 0.96269214 11.746768 2.0386044e-38
-3.2158163 1.1323932 11.742598 2.2572699e-38
-3.2163951 1.1156304 11.745156 1.3184695e-38
-3.214853 1.0985386 11.744317 1.8996869e-38
-3.214148 1.0815767 11.744818 2.1667069e-38
-3.2144651 1.0647732 11.746957 1.3842374e-38
-3.2175465 1.0483983 11.753524 9.0312004e-39
-3.2167985 1.0314296 11.753957 4.3342974e-39
-3.2160594 1.0144625 11.754403 4.3339373e-39
-3.2151415 0.99746752 11.754564 7.0065133e-39
-3.2142334 0.98047411 11.75474 1.9281507e-38
-3.2136395 0.96352941 11.75542 2.0570074e-38
-3.2020545 1.13335 11.752484 1.2913487e-38
-3.2021956 1.1165192 11.754341 1.0054043e-38
-3.2005925 1.099418 11.753405 1.1999127e-38
-3.1998608 1.0824521 11.753863 1.2462693e-38
-3.2000899 1.0656348 11.755861 1.272671e-38
-3.2028339 1.0492076 11.761887 9.3074272e-39
-3.2018056 1.0321956 11.761871 4.3346576e-39
-3.2012155 1.0152514 11.762556 4.3339373e-39
-3.1992209 0.99808961 11.760992 1.2268895e-38
-3.1992264 0.98123789 11.762632 1.8360282e-38
-3.198612 0.96428996 11.763279 1.9926866e-38
-3.1880729 1.1342727 11.762019 1.3920447e-38
-3.1876101 1.1173483 11.762908 1.4933541e-38
-3.1860182 1.1002489 11.76199 1.6976289e-38
-3.1852765 1.0832813 11.762432 1.7528377e-38
-3.1859546 1.0665338 11.765149 1.2910023e-38
-3.1884038 1.0500607 11.770703 9.7680438e-39
-3.1865284 1.0329175 11.76933 4.4268546e-39
-3.1859603 1.0159767 11.770051 4.3339359e-39
-3.184947 0.99896699 11.770059 1.2358924e-38
-3.184593 0.98205948 11.771123 1.8452476e-38
-3.1838408 0.96509027 11.771548 2.0386403e-38
-3.1742361 1.1352178 11.771786 1.4385429e-38
-3.1736147 1.1182688 11.772421 2.3492578e-38
-3.1721954 1.1011962 11.771778 2.2865595e-38
-3.1712658 1.0841994 11.77192 2.3500818e-38
-3.1719475 1.0674524 11.774643 1.3649645e-38
-3.1740735 1.0509294 11.779679 1.0505247e-38
-3.1713254 1.0336508 11.776908 4.4268546e-39
-3.1708479 1.0167241 11.777775 4.2421004e-39
-3.1707268 0.99985272 11.779211 1.2542234e-38
-3.1699142 0.9828741 11.779541 1.725431e-38
-3.1690161 0.96588224 11.779733 1.9742837e-38
-3.1594877 1.1360216 11.780092 1.1174101e-38
-3.1590822 1.1191062 11.781073 1.2657818e-38
-3.1581247 1.102105 11.78117 1.1450338e-38
-3.1572444 1.085116 11.781391 1.0629821e-38
-3.1570685 1.068236 11.78274 1.308998e-38
-3.1588655 1.051662 11.78725 1.0321579e-38
-3.1565022 1.034443 11.785095 4.3353792e-39
-3.1562097 1.017545 11.786258 4.3339359e-39
-3.1556828 1.0006107 11.787044 1.2445348e-38
-3.1545336 0.98357993 11.786834 1.706992e-38
-3.1536467 0.96658981 11.787045 1.9742837e-38
-5.3685422 1.5534 13.382795 8.6729066e-39
-5.3463864 1.5678614 13.34985 8.3041283e-39
-5.3454194 1.528934 13.333406 8.3037626e-39
-5.3243709 1.5823573 13.316826 7.2874499e-39
-5.3232999 1.5434043 13.30044 8.6729066e-39
-5.3243918 1.504981 13.282847 8.396324e-39
-5.3012929 1.5579022 13.267411 8.4899629e-39
-5.3023925 1.5194808 13.249815 8.3037626e-39
-5.2803793 1.5339773 13.216789 8.4892399e-39
-4.8907094 1.0690554 12.474559 1.5504408e-38
-4.8907809 1.0401423 12.477379 1.7885976e-38
-4.8908191 1.0112313 12.480219 1.9095681e-38
-4.890821 0.98232251 12.483083 1.3195206e-38
-4.8909531 0.95340568 12.485864 1.2090655e-38
-4.8751307 1.0955462 12.447294 1.0889586e-38
-4.8751764 1.0666348 12.45013 1.5318942e-38
-4.875246 1.0377218 12.45295 1.8899027e-38
-4.8752861 1.0088106 12.45579 1.9464457e-38
-4.8752751 0.97990268 12.458662 1.3101192e-38
-4.8754005 0.95098615 12.461447 1.1997738e-38
-4.8766541 0.92199928 12.463522 1.1995932e-38
-4.8603444 1.0930789 12.422395 1.0889586e-38
-4.8603621 1.0641692 12.425248 1.5318942e-38
-4.8604269 1.0352565 12.428072 1.8899027e-38
-4.8606572 1.0063335 12.430791 1.9464457e-38
-4.8604565 0.97743738 12.433783 1.3101192e-38
-4.8606033 0.94851953 12.436554 1.1997738e-38
-4.862083 0.91951853 12.438486 1.2088848e-38
-4.844038 1.0907065 12.398453 1.0889586e-38
-4.8440924 1.0617945 12.401283 1.5318942e-38
-4.8441629 1.0328814 12.404103 1.8899027e-38
-4.8442159 1.0039694 12.406935 1.9464457e-38
-4.8441815 0.97506297 12.409821 1.3101192e-38
-4.8443079 0.94614649 12.412605 1.1997738e-38
-4.8455715 0.91715896 12.414674 1.2088848e-38
-4.8285255 1.0593759 12.376875 1.5133115e-38
-4.8286095 1.030462 12.379687 2.1930653e-38
-4.8286624 1.0015501 12.382518 2.0475724e-38
-4.8286357 0.97264308 12.3854 1.3100474e-38
-4.8287659 0.94372636 12.388183 1.1997378e-38
-3.1735013 0.49412686 12.431143 5.8184645e-39
-3.1764219 0.4771539 12.436463 5.9103014e-39
-3.1597791 0.51165569 12.440928 5.8181071e-39
-3.1585753 0.49443901 12.439625 5.8184673e-39
-3.1621404 0.47750416 12.44598 5.9103028e-39
-3.1457276 0.51201952 12.450813 5.8181071e-39
-3.1441326 0.49477974 12.448883 5.9106643e-39
-3.1478689 0.47785497 12.455513 5.9106629e-39
-3.1325748 0.51243645 12.462143 6.0028599e-39
-3.1310394 0.49520019 12.460308 5.911023e-39
-3.1341164 0.47823647 12.465879 6.0032201e-39
-3.120327 0.51290685 12.474925 6.0032201e-39
-3.1185334 0.49565533 12.472676 5.911023e-39
-3.4820046 0.069552511 11.790985 4.2468018e-39
-3.4646416 0.073577613 11.799404 4.3386358e-39
-3.4473095 0.077627644 11.807875 4.4308315e-39
-4.1809216 0.97574168 11.34167 1.1259453e-38
-4.1813993 0.95908248 11.340655 1.6320821e-38
-4.1816711 0.94262856 11.341077 1.4580663e-38
-4.1817102 0.92640525 11.343113 1.3656543e-38
-4.1813636 0.91056633 11.34784 1.3655097e-38
-4.1807928 0.89494997 11.354127 1.3932772e-38
-4.1807575 0.87880117 11.356685 1.4024607e-38
-4.1631465 1.0093654 11.345838 1.6421267e-38
-4.1636915 0.99263912 11.344353 1.4121128e-38
-4.1641788 0.97597057 11.343272 1.1350934e-38
-4.1646051 0.95936245 11.342615 1.466744e-38
-4.1648655 0.94291973 11.343116 1.4301191e-38
-4.1649237 0.92667764 11.34502 1.3564348e-38
-4.164578 0.91083753 11.349739 1.3748016e-38
-4.1640344 0.89519447 11.355839 1.3840213e-38
-4.1640358 0.87900895 11.358139 1.3933127e-38
-4.1458683 1.0263109 11.348857 9.208766e-39
-4.1458187 1.0101759 11.351512 9.397832e-39
-4.1468873 0.99292916 11.346383 1.107428e-38
-4.1472683 0.97636658 11.346045 1.171862e-38
-4.1476784 0.95977455 11.3455 1.3932766e-38
-4.1480398 0.94323093 11.345294 1.3842019e-38
-4.1480765 0.9270103 11.347349 1.3566513e-38
-4.1477242 0.91117692 11.352116 1.3841659e-38
-4.147223 0.89549142 11.357918 1.38413e-38
-4.1472287 0.87930179 11.360189 1.3933496e-38
-4.1288462 1.0430013 11.35009 9.9315669e-39
-4.1290679 1.0265971 11.350861 1.0574415e-38
-4.1289001 1.0105799 11.354341 6.9949905e-39
-4.1294088 0.99388993 11.353109 8.9343399e-39
-4.130342 0.97677755 11.348922 1.2176709e-38
-4.130641 0.96029645 11.349154 1.3933126e-38
-4.1309886 0.94376683 11.349046 1.4302996e-38
-4.1310039 0.9275676 11.351251 1.5223869e-38
-4.1307621 0.91162378 11.355245 1.4762895e-38
-4.1304131 0.89578688 11.359985 1.4763257e-38
-4.1303897 0.87962633 11.362462 1.5039483e-38
-4.1124096 1.042926 11.349564 1.0115239e-38
-4.1126637 1.0264888 11.350102 1.0849566e-38
-4.1125484 1.0104198 11.353219 6.8109621e-39
-4.112915 0.99387085 11.352976 8.5641168e-39
-4.1137986 0.97680813 11.349136 1.2452213e-38
-4.1140552 0.96036893 11.349661 1.4118606e-38
-4.1143341 0.94390786 11.350033 1.4857609e-38
-4.1143475 0.92771053 11.352251 1.6515676e-38
-4.1141253 0.91174746 11.35611 1.6055422e-38
-4.1138558 0.89583111 11.360295 1.5963228e-38
-4.1138506 0.87965262 11.362646 1.6331646e-38
-4.0957022 1.0431193 11.350917 1.1767558e-38
-4.0959129 1.0267256 11.351761 1.1583888e-38
-4.0958209 1.0106336 11.354715 6.810602e-39
-4.095983 0.99428833 11.355899 8.3800871e-39
-4.0969701 0.97712249 11.351336 1.2544764e-38
-4.0970964 0.96081293 11.35277 1.8633633e-38
-4.0974455 0.9442817 11.35265 1.8819459e-38
-4.0975294 0.9280141 11.354377 1.8083699e-38
-4.097311 0.91204745 11.35821 1.7622727e-38
-4.0970535 0.89611936 11.362313 1.789967e-38
-4.0970922 0.87989694 11.364356 1.8084058e-38
-4.0791702 1.0431386 11.351051 1.1767557e-38
-4.0793209 1.0268049 11.352315 1.1584247e-38
-4.0792527 1.0106887 11.355102 7.1779412e-39
-4.079299 0.99445873 11.357092 8.2878887e-39
-4.0800567 0.97752118 11.354128 1.2820267e-38
-4.0797949 0.9615972 11.35826 1.8359923e-38
-4.0800738 0.94513577 11.358629 1.87287e-38
-4.080214 0.92881227 11.359964 1.8360282e-38
-4.0800028 0.91283834 11.363747 1.7899668e-38
-4.0797668 0.89688909 11.367702 1.8268446e-38
-4.0798206 0.88065183 11.369641 1.8545029e-38
-4.0629487 1.0428491 11.349025 1.1951228e-38
-4.0630221 1.0265919 11.350824 1.1767559e-38
-4.0630064 1.0104239 11.353248 7.7285954e-39
-4.0630422 0.99420393 11.355308 8.4726415e-39
-4.0637074 0.97735852 11.352989 1.3646411e-38
-4.0634151 0.96146518 11.357336 1.7714921e-38
-4.0635633 0.94513381 11.358616 1.8175893e-38
-4.0636525 0.92886096 11.360306 1.8268088e-38
-4.0633717 0.91295624 11.364573 1.8268446e-38
-4.0631194 0.89702314 11.368641 1.8452835e-38
-4.0631747 0.88078427 11.370568 1.8729418e-38
-4.047277 1.0420127 11.343169 1.2134899e-38
-4.04738 1.0257264 11.344765 1.1951229e-38
-4.0473399 1.0095819 11.347354 7.8204295e-39
-4.0473022 0.99343532 11.349927 8.1967791e-39
-4.0479264 0.97663087 11.347895 1.392155e-38
-4.0477538 0.96061838 11.351407 1.7346503e-38
-4.0479097 0.94427949 11.352634 1.7991864e-38
-4.0478892 0.92811561 11.355087 1.8084058e-38
-4.047524 0.91229475 11.359941 1.8268446e-38
-4.0471072 0.89652556 11.365157 1.8453194e-38
-4.031239 1.0415405 11.339863 1.2134899e-38
-4.0313993 1.0251969 11.341059 1.2043064e-38
-4.0313964 1.0090158 11.34339 7.912265e-39
-4.0314164 0.99281204 11.345564 7.7376058e-39
-4.0321031 0.97594517 11.343095 1.4104857e-38
-4.0320277 0.95983624 11.345932 1.7070279e-38
-4.0320783 0.94360173 11.34789 1.7807474e-38
-4.0319066 0.9275887 11.351398 1.7991864e-38
-4.0313716 0.91193658 11.357434 1.8268446e-38
-4.0154963 1.0407746 11.334501 1.2594077e-38
-4.0156908 1.0243974 11.335461 1.2226735e-38
-4.0155292 1.0083742 11.338899 7.4534477e-39
-4.0156221 0.99209762 11.340562 7.1858781e-39
-4.0165048 0.97503573 11.336727 1.4103408e-38
-4.0166059 0.95875096 11.338334 1.6885532e-38
-4.0166206 0.94255263 11.340545 1.8084058e-38
-3.6316223 0.66300046 11.569433 2.3234379e-38
-3.6324496 0.64939529 11.577394 2.3234379e-38
-3.6337714 0.63616264 11.586155 2.3326215e-38
-3.6341715 0.62223548 11.593423 2.323402e-38
-3.63223 0.60654444 11.596901 2.323402e-38
-3.6303403 0.59089231 11.600462 4.6412168e-39
-3.628437 0.57523 11.604001 7.0057763e-39
-3.6179893 0.66628033 11.576482 2.3234379e-38
-3.6190031 0.65281564 11.584744 2.3326215e-38
-3.6205239 0.63973284 11.593827 2.3326215e-38
-3.6208963 0.62578505 11.601051 2.3234379e-38
-3.6185544 0.60979217 11.60388 2.3325856e-38
-3.6165125 0.59402549 11.607195 4.8259752e-39
-3.6146376 0.57838464 11.610781 6.4537039e-39
-3.6149976 0.56442732 11.617985 6.4537039e-39
-3.6026824 0.68252754 11.5742 2.3234379e-38
-3.6034386 0.66886884 11.582045 2.3234379e-38
-3.6046529 0.65555513 11.590631 2.3234379e-38
-3.6060579 0.64238518 11.599527 2.3234379e-38
-3.6064179 0.62842798 11.60673 2.3234379e-38
-3.6041708 0.61250669 11.609714 2.3234379e-38
-3.6036949 0.59791964 11.615564 2.323402e-38
-3.6010547 0.58170217 11.61791 5.2869632e-39
-3.6004362 0.56700772 11.623529 7.0086854e-39
-3.5881958 0.68516433 11.579866 2.3234379e-38
-3.5891559 0.67165929 11.588041 2.3234379e-38
-3.5900459 0.65810138 11.596104 2.3234379e-38
-3.5913007 0.64481825 11.604755 2.3234379e-38
-3.5915961 0.63081229 11.611855 2.3234379e-38
-3.5897133 0.61516541 11.615427 2.3234379e-38
-3.5891371 0.60050285 11.621116 2.3142544e-38
-3.5865588 0.58433199 11.623562 5.6557513e-39
-3.5857162 0.5694688 11.628819 7.1012439e-39
-3.5865276 0.55585164 11.636753 7.099439e-39
-3.5725758 0.68694735 11.583698 2.3234379e-38
-3.5734 0.6733399 11.591653 2.3234379e-38
-3.5745385 0.65996903 11.600117 2.3234379e-38
-3.5757933 0.64668602 11.608769 2.3234379e-38
-3.5759919 0.63260704 11.615712 2.3234379e-38
-3.5744934 0.61724979 11.619906 2.3142544e-38
-3.5738788 0.6025582 11.625532 2.3234379e-38
-3.5719559 0.58688122 11.62904 5.6557513e-39
-3.571991 0.57267916 11.635717 7.00977e-39
-3.5727713 0.55903852 11.643602 7.1008824e-39
-3.5570555 0.6888054 11.587691 2.3142544e-38
-3.5579967 0.675286 11.595836 2.3142544e-38
-3.5592563 0.6620065 11.604496 2.3234379e-38
-3.5602829 0.64855152 11.612779 2.3234379e-38
-3.560396 0.63440824 11.619583 2.3234379e-38
-3.5590038 0.61913097 11.62395 2.3142544e-38
-3.5585387 0.60455197 11.629817 2.3234379e-38
-3.5582817 0.59012991 11.636022 5.8397852e-39
