# .PCD v0.7 - Point Cloud Data file format
VERSION 0.7
FIELDS x y z rgb
SIZE 4 4 4 4
TYPE F F F F
COUNT 1 1 1 1
WIDTH 1060
HEIGHT 1
VIEWPOINT 0 0 0 1 0 0 0
POINTS 1060
DATA ascii
-2.8498611 0.76334625 12.029935 2.3142544e-38
-2.8492198 0.74759555 12.033148 2.3234379e-38
-2.8493018 0.73210168 12.037339 2.3234379e-38
-2.8493602 0.71659935 12.041498 2.3326215e-38
-2.8495371 0.70113909 12.045817 2.3326215e-38
-2.8327143 0.85740566 12.008959 2.2499336e-38
-2.831882 0.84158719 12.011914 2.2774843e-38
-2.8319192 0.82607728 12.016045 2.2866678e-38
-2.8330328 0.81094956 12.021628 2.2958514e-38
-2.8346992 0.796018 12.027959 2.3050349e-38
-2.835412 0.78074795 12.033002 2.3142544e-38
-2.8368831 0.76574701 12.039068 2.3142544e-38
-2.8361967 0.74998033 12.042221 2.3234379e-38
-2.8362796 0.73448682 12.046413 2.3234379e-38
-2.8363373 0.71898425 12.050571 2.3326215e-38
-2.8365183 0.70352542 12.054896 2.3326215e-38
-2.8187613 0.8439374 12.020856 2.2774843e-38
-2.8188345 0.82844037 12.025035 2.2866678e-38
-2.8199816 0.81332439 12.030664 2.2958514e-38
-2.8215158 0.79834586 12.036816 2.3050349e-38
-2.8221581 0.78305084 12.041763 2.3142544e-38
-2.8236756 0.76806647 12.047893 2.3142544e-38
-2.8229396 0.75228214 12.050979 2.3234379e-38
-2.8229833 0.73677462 12.055118 2.3234379e-38
-2.8229644 0.72124493 12.059173 2.3234379e-38
-2.8230748 0.70576102 12.063402 2.3326215e-38
-2.80528 0.84615952 12.02931 2.2774843e-38
-2.805377 0.83067101 12.033522 2.2866678e-38
-2.8065181 0.81555289 12.039143 2.2958514e-38
-2.8079398 0.80053455 12.045143 2.3050349e-38
-2.8085561 0.78523022 12.050056 2.3050708e-38
-2.8100801 0.77024812 12.056193 2.3142544e-38
-2.8093953 0.75448197 12.059348 2.3234379e-38
-2.8094435 0.73897606 12.063494 2.3234379e-38
-2.8094032 0.72343874 12.067519 2.3234379e-38
-2.8095455 0.70796627 12.071792 2.3326215e-38
-2.7922263 0.83301049 12.042423 2.2315665e-38
-2.7933311 0.81787962 12.047995 2.2499336e-38
-2.7945595 0.80279255 12.053734 2.2958514e-38
-2.795125 0.78747028 12.058578 2.3050708e-38
-2.7960882 0.7722891 12.063958 2.3142544e-38
-2.796006 0.75673681 12.067927 2.3142544e-38
-2.7960768 0.74123895 12.072103 2.3234379e-38
-2.796041 0.72570324 12.076135 2.3234379e-38
-2.7962251 0.71024549 12.080463 2.3326215e-38
-2.7795255 0.83550978 12.051931 2.2499336e-38
-2.7806668 0.82039183 12.057552 2.2683007e-38
-2.7818673 0.80529481 12.063253 2.2958514e-38
-2.7824876 0.78999197 12.068172 2.3050708e-38
-2.7839682 0.77499443 12.074251 2.3142544e-38
-2.783407 0.75927222 12.077573 2.3142544e-38
-2.7835133 0.74378693 12.081797 2.3234379e-38
-2.7834988 0.72825873 12.085857 2.3234379e-38
-3.6298132 -0.0067124707 11.744383 2.3234379e-38
-3.6089201 -0.0019800477 11.754136 2.3234378e-38
-3.5880272 0.0027524421 11.763889 2.3234378e-38
-3.1642284 -0.0073561361 12.019975 2.341805e-38
-3.1483719 -0.0034956771 12.029984 2.3417691e-38
-3.1325119 0.00036290282 12.039989 2.3417691e-38
-3.1166527 0.004222047 12.049994 2.3325856e-38
-3.1007919 0.0080803074 12.059999 2.3325856e-38
-3.0849328 0.011939437 12.070005 2.323402e-38
-3.0690777 0.015800605 12.080016 2.3142183e-38
-4.7908354 0.074171789 12.758452 1.7622365e-38
-4.7894812 0.040373567 12.788283 1.2825334e-38
-4.7865424 0.0073479973 12.819031 1.3180367e-38
-4.7920175 -0.029779764 12.844911 7.8359265e-39
-4.7617059 0.086410463 12.703047 1.4676812e-38
-4.7650108 0.050340708 12.730183 1.688157e-38
-4.764452 0.016154787 12.759553 1.3557834e-38
-4.7617755 -0.016998705 12.790148 7.561513e-39
-4.7653303 -0.053190351 12.81714 6.9139716e-39
-4.7352972 0.062864192 12.675114 1.7068121e-38
-4.7375264 0.027318841 12.702871 1.3557834e-38
-4.7378569 -0.0073006786 12.731728 7.561513e-39
-4.7346296 -0.040185768 12.762642 8.021408e-39
-4.17311 0.26287681 11.633105 1.2178899e-38
-4.1733813 0.24131437 11.646937 1.373899e-38
-4.1744013 0.21944743 11.660303 1.6518184e-38
-4.1604524 0.2720249 11.600252 1.3196316e-38
-4.1591754 0.2510922 11.615049 1.7162466e-38
-4.1594181 0.22954135 11.628899 1.7251785e-38
-4.1599374 0.20787817 11.642576 1.6518184e-38
-4.1606469 0.18613751 11.656136 1.4303716e-38
-4.1601706 0.16487907 11.670433 1.7439769e-38
-4.1449676 0.28232273 11.569161 1.3196316e-38
-4.1450534 0.26083577 11.583109 1.7346138e-38
-4.1443467 0.23967114 11.59755 1.7162466e-38
-4.1441731 0.21828952 11.611659 1.6518184e-38
-4.1436048 0.19706865 11.626015 1.6613971e-38
-4.1448073 0.17512757 11.639266 1.6706524e-38
-4.1449437 0.15361995 11.653182 1.7896424e-38
-4.1426921 0.1330834 11.668586 1.8914522e-38
-4.1299596 0.27097467 11.551774 1.6795847e-38
-4.1301208 0.24945691 11.565674 1.7162466e-38
-4.1295238 0.22824758 11.580048 1.6613973e-38
-4.1289601 0.20702484 11.594399 1.6522496e-38
-4.1291523 0.18549444 11.60828 1.6706524e-38
-4.1303554 0.16355327 11.621532 1.7439769e-38
-4.1294503 0.14246924 11.636097 1.8455703e-38
-4.1293836 0.12104416 11.65014 1.7719945e-38
-4.1159067 0.25923809 11.533792 1.6705089e-38
-4.1162624 0.23764132 11.54757 1.6613612e-38
-4.115181 0.21662897 11.562245 1.6522496e-38
-4.1145015 0.19545329 11.57667 1.6613612e-38
-4.1147456 0.1739018 11.590519 1.6706165e-38
-4.1159067 0.15197748 11.603796 1.8455703e-38
-4.1155105 0.13068661 11.618044 1.8914522e-38
-4.1173687 0.10847879 11.630887 1.7719945e-38
-4.1217599 0.085240997 11.642152 1.8915598e-38
-4.1004391 0.22662468 11.530691 1.6613973e-38
-4.0990763 0.20572679 11.545541 1.6338106e-38
-4.0975094 0.18491186 11.560518 1.6706165e-38
-4.0996399 0.16259341 11.573192 1.7810702e-38
-4.1006236 0.14074133 11.58658 1.6890913e-38
-4.1014085 0.11896997 11.600092 1.707602e-38
-4.1046472 0.096200913 11.612075 1.7721021e-38
-4.1060839 0.074164473 11.625181 1.7444079e-38
-4.0863018 0.21492235 11.512761 1.6338106e-38
-4.0852656 0.19389172 11.527408 1.6613612e-38
-4.0845966 0.17271166 11.541825 1.6983108e-38
-4.0840683 0.1514744 11.556156 1.6890913e-38
-4.0880871 0.12838803 11.567653 1.6799078e-38
-4.0895543 0.10633923 11.580739 1.7721021e-38
-4.0885749 0.085285597 11.595351 1.8272751e-38
-4.0911078 0.062803328 11.607774 1.8548616e-38
-4.0717549 0.18193465 11.509088 1.6983108e-38
-4.0723047 0.16025901 11.522746 1.7258973e-38
-4.0733266 0.13839132 11.53611 1.6799078e-38
-4.0767951 0.11552875 11.54795 1.707602e-38
-4.0770612 0.093968503 11.561785 1.7721021e-38
-4.0737638 0.07385724 11.577841 1.8548616e-38
-4.0573444 0.12743935 11.51933 1.8639734e-38
-4.0601525 0.10484528 11.531581 1.8732287e-38
-4.0597644 0.083551139 11.545824 1.8915958e-38
-2.8564985 0.33847007 11.908215 5.4500407e-39
-2.8554657 0.31445745 11.948025 5.7269863e-39
-2.8535237 0.29024783 11.987719 5.6344319e-39
-4.3012381 0.9089421 11.529917 1.3748017e-38
-4.30338 0.8887496 11.532581 1.4208634e-38
-4.3042755 0.86894917 11.536719 1.3841296e-38
-4.3064065 0.84876019 11.539398 1.3749459e-38
-4.3027673 0.83038598 11.548894 1.3287036e-38
-4.3024473 0.8109678 11.554467 1.3287399e-38
-4.3009667 0.79191452 11.561412 1.3748739e-38
-4.2995625 0.77283752 11.568268 1.3749098e-38
-4.301425 0.75273293 11.571263 1.3933129e-38
-4.2853127 0.9057439 11.517902 1.3748379e-38
-4.2872138 0.88562709 11.520852 1.3840935e-38
-4.2882271 0.86578965 11.524851 1.3748379e-38
-4.2903428 0.84560537 11.527547 1.3472151e-38
-4.2868085 0.82719815 11.536919 1.3287036e-38
-4.2863936 0.80780989 11.542604 1.3564345e-38
-4.2848053 0.7887907 11.549677 1.3104091e-38
-4.2833567 0.76972735 11.556584 1.3196287e-38
-4.2852335 0.74961835 11.559563 1.3288481e-38
-4.2691674 0.90261471 11.506147 1.4851843e-38
-4.2708941 0.88255292 11.509303 1.3840936e-38
-4.2720928 0.86265713 11.513083 1.3656183e-38
-4.2741714 0.84248453 11.515823 1.3379596e-38
-4.2706594 0.82407033 11.525168 1.3010449e-38
-4.2701931 0.80469817 11.530915 1.310373e-38
-4.2684803 0.78571808 11.538135 1.3104091e-38
-4.2670012 0.76666451 11.545078 1.3104091e-38
-4.2687812 0.74658579 11.548171 1.3196285e-38
-4.2699914 0.72668636 11.551937 1.3657265e-38
-4.2526436 0.91912353 11.489644 1.5127708e-38
-4.2530966 0.89946222 11.494305 1.374874e-38
-4.2547345 0.87942833 11.497565 1.3840936e-38
-4.2559214 0.85953623 11.501359 1.3656183e-38
-4.2579288 0.83938611 11.504184 1.3379596e-38
-4.2544746 0.82095367 11.51346 1.3010812e-38
-4.2540879 0.80155641 11.519113 1.3103731e-38
-4.2523503 0.78258419 11.526362 1.3104093e-38
-4.2507033 0.76358336 11.533504 1.3104091e-38
-4.252409 0.74352807 11.536685 1.338068e-38
-4.2538028 0.72357088 11.540234 1.3657265e-38
-4.236649 0.91594696 11.477712 1.4941862e-38
-4.2370319 0.89630777 11.482455 1.374874e-38
-4.2385983 0.87629634 11.4858 1.3656545e-38
-4.2397037 0.85642999 11.489691 1.3563988e-38
-4.2415276 0.83633751 11.492731 1.2917164e-38
-4.2381144 0.81789213 11.50196 1.3287399e-38
-4.238019 0.79840332 11.507268 1.3288121e-38
-4.2364306 0.77938414 11.514341 1.3380319e-38
-4.2347679 0.76038831 11.521502 1.3196288e-38
-4.2363706 0.74036533 11.524803 1.3657265e-38
-4.2377515 0.72041225 11.528368 1.338104e-38
-4.2201838 0.91291857 11.466334 1.3932772e-38
-4.220521 0.89329368 11.471132 1.4024607e-38
-4.2221479 0.87326318 11.474406 1.3656183e-38
-4.223278 0.85338902 11.478267 1.3472154e-38
-4.2251205 0.83329076 11.481286 1.3009362e-38
-4.2218332 0.81480575 11.490366 1.3287399e-38
-4.2218714 0.79527497 11.495517 1.3288121e-38
-4.2203231 0.77624309 11.502542 1.3656906e-38
-4.2185798 0.7572726 11.509797 1.3657627e-38
-4.2199798 0.73731345 11.513339 1.3657264e-38
-4.2212505 0.71739507 11.517034 1.3565068e-38
-4.2032266 0.91004491 11.45554 1.3840213e-38
-4.2037416 0.89036411 11.460127 1.3933127e-38
-4.2056556 0.87024325 11.463061 1.3840574e-38
-4.2068806 0.85033929 11.46681 1.3564348e-38
-4.2086949 0.83024979 11.469863 1.3378509e-38
-4.2052507 0.81181419 11.479128 1.3563986e-38
-4.205224 0.79230374 11.484355 1.3564349e-38
-4.2034802 0.77333337 11.491611 1.3656906e-38
-4.2015553 0.7544201 11.499082 1.3841299e-38
-4.2029314 0.73446846 11.502651 1.3842381e-38
-4.2041888 0.71455419 11.506362 1.4118968e-38
-4.1872077 0.90687609 11.443636 1.3840213e-38
-4.1877518 0.88718617 11.448189 1.3933496e-38
-4.1896291 0.86707693 11.451167 1.3840574e-38
-4.1913652 0.84701204 11.454311 1.3564348e-38
-4.1923909 0.82717061 11.458295 1.3378509e-38
-4.1886969 0.80881363 11.467855 1.402533e-38
-4.1888032 0.7892614 11.472926 1.402533e-38
-4.1869469 0.77032644 11.480315 1.4210081e-38
-4.184803 0.75148195 11.488045 1.4117884e-38
-4.1862936 0.73149437 11.491479 1.3842381e-38
-4.1877227 0.71152604 11.494987 1.4118968e-38
-4.172359 0.90333915 11.430349 1.38413e-38
-4.1731873 0.88355988 11.434566 1.3933496e-38
-4.1746979 0.86356592 11.437978 1.4209721e-38
-4.175025 0.84394425 11.442787 1.402533e-38
-4.1757488 0.82419783 11.447128 1.3932776e-38
-4.1728158 0.80560154 11.45579 1.4026415e-38
-4.173605 0.78583437 11.460052 1.4394836e-38
-4.1721778 0.76676458 11.466935 1.448703e-38
-4.169939 0.74794984 11.474776 1.4117884e-38
-4.1713204 0.72799659 11.478339 1.4211165e-38
-4.1579013 0.88016045 11.421797 1.5039483e-38
-4.1604261 0.85984761 11.424009 1.4947647e-38
-4.1601849 0.84040463 11.42949 1.4947288e-38
-4.1602383 0.82086903 11.434624 1.4671062e-38
-4.1572828 0.80227983 11.443312 1.4026415e-38
-4.1580429 0.78252202 11.447609 1.4394836e-38
-4.156805 0.76339251 11.454268 1.5318225e-38
-4.1547813 0.74451011 11.461854 1.4764697e-38
-4.1563444 0.72449976 11.465203 1.4395557e-38
-4.1425176 0.87679189 11.409142 1.4854732e-38
-4.1445198 0.85664338 11.411973 1.4947647e-38
-4.1441832 0.8372305 11.417566 1.6331646e-38
-4.144618 0.81757492 11.422249 1.4762525e-38
-4.1418142 0.79893798 11.430758 1.4671783e-38
-4.1424332 0.7792244 11.435222 1.4764338e-38
-4.1413503 0.76004618 11.441697 1.5318225e-38
-4.1393957 0.74114221 11.449203 1.4764697e-38
-4.1412535 0.721039 11.452203 1.4488472e-38
-2.9310091 1.1569949 11.907926 1.7807834e-38
-2.9300761 1.1366096 11.908919 1.7900028e-38
-2.9294586 1.116281 11.910392 1.7991864e-38
-2.9298992 1.0961434 11.913466 1.8545388e-38
-2.9308598 1.0760995 11.917329 1.8821971e-38
-2.9352033 1.0566659 11.926316 1.8914165e-38
-2.9312999 1.0357447 11.922811 1.9558089e-38
-2.9301898 1.0153272 11.923536 2.1948323e-38
-2.9303854 0.99514538 11.92624 1.7901104e-38
-2.9310586 0.97504973 11.929667 1.9926149e-38
-2.9321601 0.95503122 11.933743 2.0570074e-38
-2.9130144 1.1581403 11.917544 1.7807475e-38
-2.9121542 1.137768 11.918649 1.7992222e-38
-2.9117024 1.1174693 11.920371 1.8084417e-38
-2.9123056 1.0973611 11.923693 1.8269164e-38
-2.9134381 1.0773482 11.927815 1.8729776e-38
-2.9181807 1.0579866 11.937407 1.9097836e-38
-2.9141562 1.0370435 11.933718 1.8913806e-38
-2.9128692 1.0165942 11.934175 2.1672458e-38
-2.91289 0.99638081 11.936615 1.7901104e-38
-2.9132671 0.97623169 11.939593 1.9098553e-38
-2.9143188 0.9562043 11.943594 1.9834672e-38
-2.8959978 1.1594621 11.928644 1.789967e-38
-2.8952386 1.1391079 11.929902 1.7991864e-38
-2.8946879 1.1187915 11.931475 1.8084058e-38
-2.8952863 1.0986823 11.934789 1.8361358e-38
-2.8962672 1.0786421 11.938682 1.8729776e-38
-2.900568 1.0592008 11.947605 1.8729776e-38
-2.8968945 1.038321 11.944447 1.8913806e-38
-2.8958018 1.0179068 11.945199 2.1672458e-38
-2.895776 0.99768496 11.947567 1.7716716e-38
-2.8962481 0.97755301 11.95069 1.9374777e-38
-2.8971865 0.95750517 11.954519 1.9834672e-38
-2.8795347 1.1608837 11.940583 1.7991864e-38
-2.8789773 1.140566 11.942146 1.8084417e-38
-2.8783689 1.1202391 11.943632 1.8268805e-38
-2.8789461 1.1001261 11.946914 1.8545747e-38
-2.8798048 1.0800639 11.950622 1.8637582e-38
-2.8840823 1.0606184 11.95951 1.8729776e-38
-2.8803484 1.0397277 11.95626 1.9098194e-38
-2.8794725 1.0193526 11.95734 2.1396952e-38
-2.8795116 0.99914247 11.959807 1.7901104e-38
-2.8799088 0.97899699 11.962816 1.9374777e-38
-2.880744 0.95893049 11.966489 1.9834672e-38
-2.8627841 1.1622535 11.952086 1.7807475e-38
-2.8623791 1.1419632 11.95388 1.8084417e-38
-2.8618221 1.1216457 11.955444 1.8361358e-38
-2.8622029 1.1014972 11.958428 1.8361358e-38
-2.8631396 1.081449 11.962255 1.8453552e-38
-2.8673344 1.0619886 11.971017 1.8821971e-38
-2.8637111 1.0411179 11.967935 1.9190389e-38
-2.862921 1.0207582 11.969146 2.1947965e-38
-2.8629704 1.0005499 11.971627 1.8269881e-38
-2.8633659 0.9804042 11.974634 1.9466613e-38
-2.8640871 0.96031719 11.978134 1.9650642e-38
-2.8455667 1.1635389 11.962883 1.771528e-38
-2.8453317 1.1432794 11.964934 1.8084058e-38
-2.844753 1.1229579 11.966465 1.8453194e-38
-2.8453825 1.1028544 11.969826 1.8268805e-38
-2.8463066 1.082804 11.973633 1.8361358e-38
-2.850646 1.0633696 11.982615 1.8821971e-38
-2.8468955 1.0424759 11.97934 1.9282224e-38
-2.8463442 1.0221593 11.980912 2.1947965e-38
-2.846103 1.0018986 11.982954 1.8453911e-38
-2.8464231 0.98173928 11.985847 1.9558448e-38
-2.8470886 0.96164221 11.989262 1.9650642e-38
-2.8276956 1.1647066 11.972689 1.7623085e-38
-2.827265 1.1444118 11.974443 1.8084417e-38
-2.8267844 1.124108 11.976123 1.8268805e-38
-2.8276162 1.104041 11.979791 1.8545388e-38
-2.8286662 1.0840132 11.983788 1.8729776e-38
-2.8331344 1.064602 11.992965 1.9006e-38
-2.8293686 1.0437056 11.989667 1.9282224e-38
-2.8286521 1.0233593 11.990989 2.1947965e-38
-2.8286355 1.0031391 11.993371 2.0477879e-38
-2.8285878 0.98291337 11.995707 1.9926508e-38
-2.8289924 0.96276921 11.998727 1.9278987e-38
-2.8095624 1.165827 11.982098 1.8176252e-38
-2.8088961 1.1454896 11.983495 1.8084057e-38
-2.8088496 1.1252642 11.985832 1.8360999e-38
-2.8099353 1.1052428 11.989884 1.8821253e-38
-2.8111126 1.0852381 11.994075 1.9373701e-38
-2.8156533 1.06584 12.003361 1.8821971e-38
-2.8118281 1.0449328 11.999973 1.9006359e-38
-2.8109648 1.02456 12.001073 2.1856129e-38
-2.8109894 1.0043473 12.003518 2.1948323e-38
-2.8105402 0.9840492 12.005245 2.0018343e-38
-2.810636 0.96384931 12.007797 1.9181031e-38
-2.7916405 1.1669855 11.991826 8.2379198e-39
-2.7912033 1.1466894 11.993571 8.422667e-39
-2.7911139 1.1264561 11.995843 8.699607e-39
-2.7919192 1.1063843 11.99947 8.5152199e-39
-2.7937374 1.0864952 12.004632 8.8839954e-39
-2.7970176 1.0668697 12.012009 9.4364419e-39
-2.795388 1.0463587 12.011948 1.0080725e-38
-2.7932801 1.0257612 12.011162 1.2196529e-38
-2.7930951 1.0055108 12.013288 2.1948323e-38
-2.7925756 0.98519993 12.014909 2.0018343e-38
-2.7929621 0.96505249 12.017901 1.8257642e-38
-2.7762835 1.1686066 12.005441 7.2838345e-39
-2.776243 1.1483822 12.007787 7.6529632e-39
-2.7759502 1.1281122 12.00975 8.0217345e-39
-2.7760928 1.1079208 12.012374 7.6518799e-39
-2.7781773 1.0880797 12.017939 1.1411691e-38
-2.7801223 1.0682133 12.023293 1.1320932e-38
-2.7802682 1.0480225 12.025921 1.1412412e-38
-2.7784717 1.0274814 12.025607 1.1873744e-38
-2.776865 1.0069745 12.02558 1.9272496e-38
-2.7758725 0.98657823 12.026484 1.9742476e-38
-2.7765982 0.96649206 12.029991 1.7888498e-38
-2.7602057 1.1700977 12.017963 6.1785828e-39
-2.7603319 1.1499033 12.020561 6.7317565e-39
-2.7598946 1.1296073 12.022306 7.2838401e-39
-2.759907 1.1093924 12.024733 6.7295859e-39
-2.7614095 1.0894463 12.029416 1.6269295e-38
-2.7629972 1.0695156 12.034228 1.4524419e-38
-2.763247 1.0493436 12.037015 1.2963579e-38
-2.7619202 1.028887 12.037412 1.1037194e-38
-2.7608187 1.0084713 12.038151 7.7675459e-39
-2.7598836 0.98808539 12.039142 1.8543943e-38
-2.7605209 0.96798325 12.042514 1.6413751e-38
-5.5515547 0.74910665 13.683557 1.9920764e-38
-5.5521464 0.7217201 13.693311 1.0707058e-38
-5.5522351 0.69444108 13.703355 7.9266634e-39
-5.5361271 0.74054974 13.660451 1.8354164e-38
-5.5365319 0.71320325 13.670313 1.0707058e-38
-5.5370793 0.68582618 13.680093 3.5099612e-39
-5.5379825 0.65837312 13.689667 5.6347935e-39
-5.5212884 0.70460713 13.647101 6.729209e-39
-5.5218468 0.67722768 13.656875 3.5088808e-39
-5.52281 0.64976192 13.666414 5.6347935e-39
-5.5061455 0.69598955 13.623832 6.729209e-39
-5.5065932 0.66863376 13.633669 3.5088808e-39
-5.5075731 0.64116436 13.643199 6.1857504e-39
-5.5062275 0.61419165 13.654071 3.9680499e-39
-5.4913154 0.66004503 13.610477 5.6347935e-39
-5.4922996 0.63257468 13.620005 6.1857504e-39
-5.4909616 0.60560036 13.630873 6.8289534e-39
-4.0126972 0.089223161 11.50199 2.1489146e-38
-4.0103502 0.081847489 11.512308 2.1856488e-38
-4.0018215 0.085266851 11.49738 2.1856488e-38
-3.9986024 0.078624018 11.508553 2.1856488e-38
-3.9979305 0.069841288 11.517232 2.2040159e-38
-3.9916625 0.071361706 11.500091 2.2040159e-38
-3.9910016 0.062570028 11.508759 2.1672817e-38
-2.8377116 1.1186571 11.975791 1.8361358e-38
-2.8388059 1.0997998 11.979748 1.8545388e-38
-2.8409226 1.0811278 11.98521 1.8729776e-38
-2.8428562 1.0624225 11.990403 1.9006e-38
-2.8408048 1.0429951 11.989726 1.9282224e-38
-2.8202968 1.1578081 11.979551 1.7807474e-38
-2.820401 1.1387713 11.98205 1.7991864e-38
-2.8204339 1.1197215 11.984443 1.8453194e-38
-2.821527 1.1008641 11.988398 1.8545388e-38
-2.8201971 1.0815674 11.988783 1.8913806e-38
-2.8251507 1.0634094 11.998425 1.8821971e-38
-2.8208342 1.0435715 11.994411 1.8822329e-38
-2.8235564 1.0250093 12.000765 2.1764294e-38
-2.8236163 1.0059644 12.003198 2.0477879e-38
-2.8015404 1.1586045 11.986025 1.8176252e-38
-2.8015118 1.1395437 11.988328 1.8084057e-38
-2.801199 1.1204313 11.990211 1.8821612e-38
-2.8009434 1.1013293 11.992179 1.8821253e-38
-2.8023198 1.0825231 11.996552 1.9373701e-38
-2.8065312 1.0642308 12.005099 1.9098194e-38
-2.8026838 1.0444778 12.001777 1.9006359e-38
-2.8028655 1.0254551 12.004389 2.1856129e-38
-2.8049316 1.0067739 12.009777 2.1948323e-38
-2.8058865 0.98789126 12.013528 2.0018343e-38
-2.8041477 0.96852052 12.013311 1.9181031e-38
-2.7852376 1.1598457 11.996112 8.2379198e-39
-2.7848551 1.1407207 11.997893 8.422667e-39
-2.7844472 1.1215911 11.999638 8.5155787e-39
-2.7842097 1.1024925 12.001633 8.5152199e-39
-2.7856078 1.0836902 12.006036 8.8839954e-39
-2.7885385 1.0651656 12.012697 9.4364419e-39
-2.7856061 1.0455786 12.010723 1.0080725e-38
-2.7851419 1.0264387 12.012383 1.2196529e-38
-2.7855108 1.00745 12.015271 2.1948323e-38
-2.788636 0.98896068 12.02222 2.0018343e-38
-2.7870123 0.96961075 12.022172 1.8257642e-38
-2.7705746 1.161384 12.008615 7.2838345e-39
-2.7703159 1.1422814 12.010579 7.6529632e-39
-2.7698789 1.1231467 12.01228 7.6518799e-39
-2.7696102 1.1040423 12.014229 8.3800493e-39
-2.7707732 1.0851974 12.018286 1.1411691e-38
-2.7740488 1.0667354 12.025455 1.1320932e-38
-2.7707188 1.0470762 12.022895 1.1412412e-38
-2.770179 1.0279227 12.024445 1.1873744e-38
-2.7695553 1.008754 12.02587 7.7675459e-39
-2.7715635 0.99006236 12.031174 1.9742476e-38
-2.7713861 0.97097456 12.033257 1.7888498e-38
-2.7546611 1.1626958 12.019276 6.1785828e-39
-2.7546356 1.1436355 12.021584 6.7317565e-39
-2.7541859 1.1244982 12.023266 6.7295859e-39
-2.7537556 1.1053647 12.024977 7.0886238e-39
-2.7552347 1.0865771 12.0295 1.6269295e-38
-2.7586129 1.0681337 12.03682 1.4524419e-38
-2.7550449 1.0484314 12.033909 1.3422395e-38
-2.7544801 1.0292734 12.035422 1.167932e-38
-2.7539313 1.0101182 12.036958 7.3886909e-39
-2.7555587 0.99135751 12.041699 1.8628582e-38
-2.7565057 0.9724735 12.045439 1.8350913e-38
-2.7407317 1.1643671 12.03286 6.1782226e-39
-2.74036 1.145244 12.034657 6.8243151e-39
-2.7395825 1.1260475 12.035856 6.4504697e-39
-2.7391782 1.1069185 12.037605 7.0882637e-39
-2.740176 1.0880437 12.041419 1.5167266e-38
-2.7432303 1.0695416 12.048264 1.4156719e-38
-2.7399199 1.049886 12.045732 1.3514229e-38
-2.7395728 1.0307674 12.047565 1.186227e-38
-2.7387557 1.0115637 12.048706 1.0579822e-38
-2.7401938 0.99276865 12.053169 1.8535298e-38
-2.7415144 0.97395229 12.057458 1.9558805e-38
-2.7287333 1.1663883 12.049288 5.896933e-39
-2.7273715 1.1470858 12.049626 6.4511886e-39
-2.7249267 1.1275871 12.048369 8.5587162e-39
-2.7234957 1.1082721 12.048607 6.9045913e-39
-2.724417 1.0893834 12.052308 1.507543e-38
-2.7271414 1.0708215 12.058665 1.4891759e-38
-2.724122 1.0512186 12.056562 1.5166908e-38
-2.7242029 1.0321776 12.059027 1.2137417e-38
-2.7244105 1.0131596 12.061677 1.0670937e-38
-2.7266657 0.99451262 12.067343 1.8351629e-38
-2.7291107 0.97590011 12.073289 2.00187e-38
-2.7120111 1.1675534 12.058758 7.638555e-39
-2.7101316 1.1481571 12.058333 9.3845084e-39
-2.7082164 1.1287544 12.057858 8.0984513e-39
-2.7070718 1.1094912 12.058516 6.1699087e-39
-2.7075961 1.0905306 12.061632 1.4799563e-38
-2.711185 1.0721254 12.069263 1.4524058e-38
-2.7073324 1.0523715 12.065933 1.4431864e-38
-2.7074006 1.0333282 12.068378 1.204558e-38
-2.7071934 1.014235 12.070417 1.076277e-38
-2.7087924 0.99546921 12.075118 1.8076484e-38
-2.7109482 0.97680426 12.080638 2.0019059e-38
-2.6905253 1.1297439 12.0659 7.6396368e-39
-2.6887851 1.1103729 12.065681 5.6189014e-39
-2.6898372 1.0915079 12.069575 1.4524058e-38
-2.6956072 1.0734979 12.080419 1.4156357e-38
-2.689656 1.0533637 12.073997 1.3880851e-38
-2.6897962 1.0343335 12.076549 1.2137057e-38
-2.6904333 1.0153933 12.079831 1.0946079e-38
-2.6917794 0.99658161 12.084159 1.7800259e-38
-2.6937475 0.97788268 12.089402 1.9927224e-38
-2.6737859 1.0927947 12.080033 1.2136696e-38
-2.6792541 1.07473 12.090432 1.2136336e-38
-2.6736434 1.0546575 12.084512 1.1769354e-38
-2.6738467 1.0356387 12.087156 1.0484378e-38
-2.6756599 1.0169116 12.092172 9.7515001e-39
-3.9957221 0.089135066 11.501139 2.1856488e-38
-3.9930763 0.081510961 11.512893 2.0019059e-38
-3.9871016 0.081642784 11.492941 2.0019059e-38
-3.9841559 0.074288763 11.504991 2.1672817e-38
-3.9856408 0.062943205 11.512672 2.1672817e-38
-3.9757178 0.066632107 11.496612 2.1672817e-38
-3.977124 0.055357456 11.504372 2.2315665e-38
-3.7860436 1.4034542 11.447534 4.1524355e-39
-3.7846069 1.3887931 11.444016 4.5219453e-39
-3.7821136 1.3742486 11.438571 8.4035547e-39
-3.776432 1.360056 11.42731 8.4035547e-39
-3.7714217 1.3457894 11.417274 1.5866335e-38
-3.7714586 1.3309658 11.416445 1.6422038e-38
-3.7716963 1.3161199 11.415982 1.6422037e-38
-3.7709098 1.3013872 11.413651 1.6421677e-38
-3.7684376 1.2868404 11.408244 1.6515314e-38
-3.7737501 1.4029431 11.45598 3.966961e-39
-3.7723093 1.3882825 11.452456 4.4293867e-39
-3.7676435 1.3739779 11.443048 7.8514697e-39
-3.7601352 1.3599869 11.428454 7.8511096e-39
-3.7587109 1.3453245 11.424959 1.6142558e-38
-3.758666 1.3305099 11.423981 1.6422397e-38
-3.7589326 1.3156608 11.423571 1.6422037e-38
-3.7582095 1.3009211 11.421355 1.6514594e-38
-3.7558827 1.2863584 11.416214 1.6515314e-38
-3.7614028 1.402438 11.46433 3.8747626e-39
-3.7598705 1.3877876 11.460638 4.4290238e-39
-3.7550678 1.3734981 11.45098 7.8511096e-39
-3.7468317 1.3595873 11.435059 7.4826872e-39
-3.7446523 1.3450083 11.430186 1.6417697e-38
-3.7450938 1.33014 11.430096 1.6422397e-38
-3.745337 1.3152936 11.429643 1.6422398e-38
-3.7446115 1.300554 11.427423 1.6423117e-38
-3.7422879 1.285991 11.422287 1.660751e-38
-3.7486832 1.4019741 11.471999 4.0591553e-39
-3.747252 1.3873125 11.468492 4.5204992e-39
-3.7424173 1.3730265 11.458776 7.4826872e-39
-3.7340074 1.3591349 11.442537 1.6417697e-38
-3.7318306 1.3445556 11.43767 1.6417697e-38
-3.7322762 1.3296869 11.437586 1.6513872e-38
-3.7325895 1.3148327 11.437262 1.6514592e-38
-3.7319272 1.3000863 11.435157 1.6514594e-38
-3.7296495 1.2855181 11.430105 1.6607508e-38
-3.7359712 1.4015093 11.479682 4.0587951e-39
-3.7343917 1.3868641 11.475904 4.6126962e-39
-3.7295778 1.3725758 11.466226 7.0220664e-39
-3.7209809 1.3587048 11.449647 1.6966168e-38
-3.7180474 1.344209 11.443399 1.6514232e-38
-3.7184293 1.3293473 11.443199 1.6514232e-38
-3.7187786 1.3144891 11.442941 1.6607148e-38
-3.7181587 1.2997379 11.440913 1.6515313e-38
-3.7159946 1.2851572 11.436069 1.6607508e-38
-3.7229686 1.4010766 11.486835 4.0584336e-39
-3.7213264 1.3864383 11.482944 4.6123347e-39
-3.7167594 1.3721226 11.473716 6.1930274e-39
-3.7075908 1.3583149 11.456094 1.7057276e-38
-3.7041011 1.3438804 11.448832 1.6514953e-38
-3.7045419 1.3290122 11.448739 1.660715e-38
-3.7048974 1.3141534 11.448491 1.660715e-38
-3.7043152 1.2993981 11.446532 1.6515673e-38
-3.7022605 1.2848052 11.441888 1.6515674e-38
-3.7105205 1.4005827 11.495001 3.8733193e-39
-3.708976 1.3859335 11.491287 4.3350233e-39
-3.7044549 1.3716129 11.482142 5.7320576e-39
-3.6946912 1.3578708 11.463435 1.7057642e-38
-3.6909387 1.3434653 11.455693 1.6515674e-38
-3.6914432 1.32859 11.455717 1.6607508e-38
-3.6918204 1.3137289 11.455508 1.6515673e-38
-3.6912339 1.298974 11.453542 1.6515673e-38
-3.6890385 1.2843966 11.448641 1.6515674e-38
-3.697583 1.4001428 11.502273 3.7807621e-39
-3.6962035 1.3854754 11.498859 4.1502691e-39
-3.6918521 1.3711361 11.490026 5.2710809e-39
-3.6817894 1.3574269 11.470773 1.7239864e-38
-3.677542 1.3430761 11.462128 1.6515316e-38
-3.6780219 1.3282036 11.462107 1.6515314e-38
-3.6783605 1.3133466 11.461827 1.6607508e-38
-3.6777635 1.2985929 11.459842 1.660751e-38
-3.6755338 1.2840194 11.454878 1.660751e-38
-3.6847389 1.3996925 11.509715 4.0580721e-39
-3.6833799 1.3850229 11.50634 4.0580721e-39
-3.6793702 1.3706459 11.498128 4.6249926e-39
-3.6691887 1.3569498 11.478659 1.7054747e-38
-3.6646016 1.3426365 11.469394 1.6515314e-38
-3.6650953 1.3277624 11.469398 1.6515674e-38
-3.6655142 1.3128966 11.469266 1.660751e-38
-3.6649389 1.2981405 11.46732 1.6607508e-38
-3.6627021 1.2835678 11.462343 1.6607867e-38
-3.6719186 1.3992397 11.517201 4.2424661e-39
-3.6705546 1.3845706 11.513817 4.5324368e-39
-3.6666803 1.3701786 11.505853 4.5324368e-39
-3.6569602 1.3564316 11.487225 1.6777437e-38
-3.6518815 1.3421725 11.477063 1.642348e-38
-3.6524324 1.3272922 11.477172 1.6515674e-38
-3.6528673 1.3124247 11.477069 1.6607869e-38
-3.6523492 1.2976623 11.475227 1.6608227e-38
-3.6502337 1.283076 11.470471 1.6516392e-38
-3.6582348 1.3988822 11.523111 4.3343002e-39
-3.6573942 1.3841553 11.520681 4.4395209e-39
-3.6536613 1.3697476 11.512976 1.668452e-38
-3.6443074 1.3559604 11.495016 1.668452e-38
-3.6389377 1.3417333 11.484324 1.642348e-38
-3.6395254 1.3268489 11.484499 1.6515674e-38
-3.6400011 1.3119769 11.48447 1.6516033e-38
-3.639559 1.297206 11.482768 1.6516034e-38
-3.6377115 1.2825904 11.4785 1.6608229e-38
-4.8741851 0.79971015 12.497132 1.3471055e-38
-4.8742056 0.77444619 12.507096 1.5222768e-38
-4.8734269 0.74936348 12.517518 1.7804234e-38
-4.8727188 0.72426468 12.5279 1.7159229e-38
-4.8599882 0.81646574 12.465624 1.30126e-38
-4.8601437 0.79117119 12.47551 1.3471055e-38
-4.8595881 0.76603782 12.485805 1.7894984e-38
-4.859695 0.74075425 12.495718 1.7804234e-38
-4.8592396 0.71559823 12.505955 1.4946544e-38
-4.8600545 0.69015408 12.515462 1.4393373e-38
-4.8430791 0.83383614 12.435673 1.3009361e-38
-4.8431673 0.80855685 12.445598 1.30126e-38
-4.8428469 0.78337008 12.455756 1.3471055e-38
-4.8422914 0.75823671 12.46605 1.7804949e-38
-4.8422532 0.73298603 12.476048 1.7806032e-38
-4.8421168 0.70775771 12.486101 1.4946544e-38
-4.842979 0.68230295 12.495582 1.4301176e-38
-4.8285651 0.82540417 12.414321 1.3840199e-38
-4.8285675 0.80014437 12.424295 1.3287387e-38
-4.8283238 0.77494025 12.43441 1.5961052e-38
-4.827898 0.74977756 12.444631 1.7804949e-38
-4.8279467 0.72450715 12.454577 1.6698614e-38
-4.8275518 0.6993373 12.464779 1.4946544e-38
-4.8142824 0.79166055 12.402813 1.4208981e-38
-4.8139715 0.76647168 12.412967 1.5961052e-38
-4.8136783 0.74127889 12.42311 1.7806032e-38
-4.8137522 0.71600276 12.433043 1.531677e-38
-4.6336813 0.1118461 12.424786 1.5136348e-38
-4.6103907 0.11866379 12.380891 1.5864516e-38
-4.6106892 0.093051948 12.405317 1.4769008e-38
-4.5919261 0.12307233 12.3345 1.5864516e-38
-4.5920672 0.097539082 12.359009 1.4859764e-38
-4.5925746 0.071823217 12.383327 1.8637222e-38
-4.5712214 0.10313655 12.313849 1.4676453e-38
-4.5716658 0.077451907 12.338201 1.8637222e-38
-4.5505733 0.083172292 12.293169 1.5228901e-38
-3.5210538 -0.00085031084 11.80432 2.3325853e-38
-4.0469589 1.4404818 11.308782 2.8577184e-39
-4.0485096 1.4172897 11.311316 3.0424712e-39
-4.0476322 1.3945534 11.307363 3.2265037e-39
-4.0423326 1.3726469 11.291596 3.4108964e-39
-4.0403342 1.3501209 11.284649 3.1346682e-39
-4.0412312 1.3270515 11.285437 3.2265051e-39
-4.0401907 1.3043458 11.281048 3.4105363e-39
-4.0378799 1.2818785 11.273266 6.8999152e-39
-4.0377069 1.2590098 11.271194 1.3143651e-38
-4.0405488 1.2355754 11.277177 8.1859708e-39
-4.0415802 1.2124808 11.278323 3.5949275e-39
-4.0244799 1.4401014 11.314197 2.8577184e-39
-4.0253839 1.4170307 11.315002 3.1343067e-39
-4.0253396 1.394138 11.313275 3.2265051e-39
-4.0199833 1.3722422 11.297358 3.4108964e-39
-4.018342 1.3496492 11.291363 3.2265037e-39
-4.0190778 1.3266101 11.29172 3.2265051e-39
-4.0181189 1.303889 11.28755 3.5023718e-39
-4.0164266 1.2813056 11.28142 4.2366928e-39
-4.0164804 1.2583944 11.279955 6.992108e-39
-4.0191407 1.2349941 11.285453 6.0741174e-39
-4.0200567 1.211921 11.286291 3.6878462e-39
-4.002296 1.4396657 11.320399 2.9495525e-39
-4.0024905 1.4167281 11.319309 3.1339466e-39
-4.0023022 1.3938624 11.317198 3.4108964e-39
-3.9971466 1.3719289 11.301816 3.5034564e-39
-3.9956748 1.3493041 11.296276 3.226145e-39
-3.9960442 1.3263338 11.295653 3.3187022e-39
-3.9951222 1.3036057 11.291581 3.5945674e-39
-3.9937549 1.2809613 11.28632 4.1448573e-39
-3.9939167 1.2580298 11.285144 7.4509253e-39
-3.9966869 1.2346089 11.290935 6.6251289e-39
-3.9978318 1.2114929 11.292384 3.8715158e-39
-3.9797907 1.4392902 11.325744 2.9495539e-39
-3.9794703 1.4164493 11.323278 3.1343067e-39
-3.9793265 1.3935752 11.321285 3.4108964e-39
-3.974529 1.3715745 11.306861 3.3183392e-39
-3.9731605 1.3489304 11.301596 3.226145e-39
-3.9731321 1.3260347 11.299911 3.3183406e-39
-3.9720688 1.3033332 11.295462 3.5945674e-39
-3.9708033 1.2806696 11.290472 4.1448573e-39
-3.9710474 1.2577227 11.289515 8.8284592e-39
-3.9737749 1.2343097 11.295193 9.1043258e-39
-3.9753165 1.2111193 11.297702 3.9633527e-39
-3.9580185 1.4387771 11.333046 3.1339452e-39
-3.9576797 1.4159397 11.330532 3.2265023e-39
-3.9579716 1.3929838 11.329703 3.4105363e-39
-3.9531541 1.3709869 11.315225 3.5027347e-39
-3.9518223 1.3483359 11.310058 3.318342e-39
-3.9514971 1.3254958 11.30758 3.4105391e-39
-3.9501781 1.3028423 11.302447 3.5027347e-39
-3.9490383 1.2801552 11.297794 3.5023746e-39
-3.9494722 1.2571727 11.297344 3.5027333e-39
-3.9527128 1.2336634 11.304392 3.5030976e-39
-3.9539254 1.2105348 11.306023 3.8718773e-39
-3.9349196 1.438513 11.336804 3.1343067e-39
-3.934689 1.4156553 11.33458 3.3183392e-39
-3.9348896 1.3927166 11.333507 3.5027319e-39
-3.9303553 1.3706665 11.319785 3.6871259e-39
-3.9289725 1.348025 11.314482 4.2381361e-39
-3.9282067 1.3252677 11.310827 4.9731788e-39
-3.92696 1.3026006 11.305888 4.9731788e-39
-3.9259949 1.2798806 11.301701 5.0642941e-39
-3.9262652 1.2569289 11.300815 5.4319948e-39
-3.9291811 1.2334806 11.306994 5.2494084e-39
-3.9304953 1.2103329 11.308896 5.9862532e-39
-3.9126196 1.438099 11.342697 3.1343053e-39
-3.9125805 1.4152054 11.340984 3.2265023e-39
-3.9127178 1.3922786 11.339742 3.8733319e-39
-3.9080117 1.3702607 11.325561 4.2497136e-39
-3.9054387 1.3478426 11.317079 1.2172729e-38
-3.9035623 1.3252937 11.310457 1.3739708e-38
-3.9034574 1.3024123 11.308568 1.4199966e-38
-3.9031415 1.2795706 11.306115 1.4476552e-38
-3.9032547 1.2566483 11.304809 1.4568386e-38
-3.9050782 1.233405 11.308071 1.5029729e-38
-3.906785 1.2101836 11.311022 1.5586151e-38
-3.8914845 1.4374664 11.351703 3.1343053e-39
-3.8910439 1.4146481 11.348916 3.1346668e-39
-3.8899894 1.391945 11.34449 3.8740522e-39
-3.8853221 1.3699199 11.330413 4.2500724e-39
-3.8828745 1.3474782 11.322266 1.2266737e-38
-3.8811967 1.324892 11.316175 1.4390139e-38
-3.8816674 1.3019027 11.315823 1.4667086e-38
-3.8812954 1.2790713 11.313221 1.4759283e-38
-3.8813112 1.2561674 11.311653 1.4851477e-38
-3.8836002 1.2328367 11.316159 1.5959989e-38
-3.8852122 1.2096331 11.318857 1.5960348e-38
-3.8694465 1.4370033 11.358294 3.1346654e-39
-3.8690569 1.4141753 11.355645 3.2268625e-39
-3.8683107 1.3914143 11.352043 3.8736892e-39
-3.8630207 1.3695061 11.336302 4.2493465e-39
-3.8605785 1.3470634 11.32817 1.2174539e-38
-3.8594439 1.3243753 11.323529 1.5035865e-38
-3.8599875 1.3013722 11.323373 1.5220977e-38
-3.8592637 1.278607 11.31983 1.5312811e-38
-3.8595717 1.2556481 11.319044 1.5867792e-38
-3.8622136 1.2322513 11.324492 1.6329847e-38
-3.8632233 1.2091607 11.325581 1.6329844e-38
-3.8482716 1.4363781 11.367193 3.1343039e-39
-3.8480778 1.4135134 11.365067 3.134664e-39
-3.8473644 1.3907462 11.361552 3.9673268e-39
-3.8418455 1.368881 11.3452 4.341175e-39
-3.8391464 1.3464866 11.33638 1.1715008e-38
-3.8378117 1.323836 11.331205 1.5589758e-38
-3.8379517 1.3009087 11.329971 1.5128058e-38
-3.837148 1.2781584 11.326215 1.5959982e-38
-3.8367152 1.2553385 11.32345 1.6052902e-38
-3.83952 1.2319111 11.329334 1.6422042e-38
-3.8404408 1.2088373 11.330184 1.6329842e-38
-3.8281469 1.4355558 11.378898 3.1343039e-39
-3.8283961 1.412608 11.377954 3.3194182e-39
-3.8270466 1.3899603 11.37274 3.9676883e-39
-3.8217368 1.3680557 11.356946 4.4326462e-39
-3.8186357 1.3457366 11.347054 1.5590115e-38
-3.8170567 1.323132 11.341226 1.6052175e-38
-3.8172603 1.3001927 11.34016 1.605254e-38
-3.8156824 1.2775878 11.334337 1.6145091e-38
-3.8151076 1.2547946 11.331192 1.6329845e-38
-3.8185439 1.2312486 11.338763 1.6514955e-38
-3.8199708 1.2080798 11.340966 1.660715e-38
-4.4376669 0.0072088349 12.184654 8.7571569e-39
-4.4122033 0.0085826553 12.138219 8.7571569e-39
-4.386765 0.0099383043 12.091768 8.2039859e-39
-3.5815535 1.4024431 11.506538 3.8729577e-39
-3.5795295 1.3863455 11.505853 4.4272217e-39
-3.5774908 1.3702432 11.50514 3.9749218e-39
-3.5752792 1.3540862 11.504129 1.54838e-38
-3.5746312 1.3384246 11.505829 1.6699345e-38
-3.5743523 1.3228799 11.508169 1.6699705e-38
-3.5755825 1.3078136 11.513127 1.6700064e-38
-3.5680559 1.40389 11.514458 3.5963695e-39
-3.5660071 1.3877846 11.513729 4.3350261e-39
-3.5639381 1.3716726 11.512964 4.0656699e-39
-3.561785 1.3555341 11.512053 1.5390883e-38
-3.5609682 1.339819 11.513461 1.6791541e-38
-3.5605583 1.3242329 11.515574 1.67919e-38
-3.5618379 1.3091822 11.520617 1.6700064e-38
-3.5543513 1.4052713 11.522017 3.6882063e-39
-3.5523539 1.3891821 11.521378 4.3361107e-39
-3.5501609 1.3730309 11.520398 4.1564194e-39
-3.5479999 1.3568898 11.519474 1.5022099e-38
-3.5465093 1.3409612 11.519712 1.6791182e-38
-3.545959 1.3253306 11.521583 1.6699347e-38
-3.5471718 1.3102589 11.52651 1.6791541e-38
-3.5466397 1.294634 11.528411 1.6883735e-38
-3.5401397 1.4064919 11.528698 3.3194224e-39
-3.5383713 1.3904753 11.528456 4.1502719e-39
-3.5362411 1.374344 11.527584 4.4297553e-39
-3.5341306 1.358219 11.526749 1.3823561e-38
-3.5320985 1.3421187 11.526048 1.6791182e-38
-3.5314803 1.3264666 11.5278 1.6699347e-38
-3.5327222 1.311404 11.532778 1.6791541e-38
-3.5321643 1.295771 11.534635 1.6883735e-38
-3.5244856 1.4072554 11.532877 3.3190609e-39
-3.523308 1.391426 11.533658 4.3357492e-39
-3.5215631 1.3754169 11.533456 4.5215894e-39
-3.5198996 1.3594334 11.533395 1.2166211e-38
-3.5176935 1.3432782 11.532393 1.6514955e-38
-3.5170605 1.3276212 11.534119 1.6699347e-38
-3.5184488 1.312605 11.539351 1.6791541e-38
-3.5180061 1.2970085 11.541407 1.6883735e-38
-3.5104918 1.408545 11.539935 3.319421e-39
-3.5092957 1.3927097 11.540685 4.4279462e-39
-3.5072579 1.3766078 11.539974 4.521588e-39
-3.5062256 1.3608245 11.541008 1.1981821e-38
-3.5038526 1.3446162 11.539716 1.6514234e-38
-3.503314 1.3289893 11.541606 1.6791541e-38
-3.504693 1.3139701 11.546822 1.6883376e-38
-3.5042634 1.2983778 11.548901 1.6883735e-38
-3.5010819 1.2819133 11.546207 1.6883735e-38
-3.4946272 1.3937856 11.546573 4.4286679e-39
-3.4926944 1.3777169 11.546044 4.5219481e-39
-3.4921756 1.3620962 11.547969 1.1521926e-38
-3.4899867 1.3459463 11.546996 1.6236924e-38
-3.4894989 1.3303356 11.548974 1.6791539e-38
-3.4908478 1.3153068 11.554138 1.6883376e-38
-3.4904077 1.2997111 11.556198 1.6883376e-38
-3.4872251 1.2832464 11.553503 1.6975572e-38
-3.4807687 1.3951181 11.553865 4.520502e-39
-3.4786916 1.3790036 11.553087 4.6137822e-39
-3.4779625 1.3633164 11.554646 1.143009e-38
-3.4757273 1.3471519 11.553594 1.623548e-38
-3.4748752 1.3314255 11.55494 1.697521e-38
-3.4762201 1.3163956 11.560097 1.6975571e-38
-3.4757192 1.3007807 11.562052 1.6975571e-38
-3.4724302 1.2842822 11.559172 1.7159243e-38
-3.4667418 1.3963974 11.560866 4.5201404e-39
-3.4648247 1.3803335 11.560366 4.6134207e-39
-3.4644456 1.3647572 11.562531 1.0878e-38
-3.4621315 1.3485676 11.561342 1.6420954e-38
-3.4615145 1.3329159 11.563096 1.7067047e-38
-3.4629238 1.3179063 11.568365 1.7067408e-38
-3.4625392 1.3023282 11.570521 1.6975572e-38
-3.4593995 1.285877 11.567901 1.7158883e-38
-3.451262 1.3817598 11.568172 4.6130605e-39
-3.4511347 1.3662632 11.570774 9.6812684e-39
-3.4489961 1.3501292 11.569889 1.6050003e-38
-3.4486051 1.3345492 11.572035 1.7158883e-38
-3.4500918 1.3195641 11.577438 1.7159243e-38
-3.4497075 1.3039861 11.579596 1.7067408e-38
-3.4465754 1.2875373 11.576987 1.7159243e-38
-3.4378843 1.3832446 11.576298 4.7048946e-39
-3.437845 1.367776 11.579054 8.7600408e-39
-3.4356494 1.351624 11.578071 1.6137865e-38
-3.435262 1.336045 11.580222 1.7067046e-38
-3.4367445 1.3210586 11.585617 1.7067408e-38
-3.4363406 1.3054744 11.587741 1.6975572e-38
-3.4331422 1.2890046 11.585017 1.7067408e-38
-4.2193017 0.18674298 11.799284 1.4303716e-38
-4.2142782 0.21557198 11.806015 1.6518184e-38
-4.2145119 0.16291986 11.765065 1.0421049e-38
-4.2143364 0.1920007 11.770412 1.5227462e-38
-4.2092609 0.220827 11.777158 1.6518184e-38
-4.2065806 0.24977775 11.78322 1.7162466e-38
-4.2050238 0.27878684 11.788961 1.6521059e-38
-4.1964898 0.13840942 11.73462 9.6896187e-39
-4.2056737 0.16797644 11.737298 1.0421049e-38
-4.204319 0.196996 11.742982 1.5227462e-38
-4.199245 0.2258224 11.749727 1.7251785e-38
-4.1965499 0.25477237 11.755794 1.7162466e-38
-4.1952152 0.28379297 11.761472 1.6521059e-38
-4.1928873 0.31276202 11.767433 1.6611819e-38
-4.1888275 0.14352708 11.706518 1.0983607e-38
-4.1970363 0.17304341 11.709475 1.0421049e-38
-4.1953678 0.20204671 11.715247 1.5227462e-38
-4.1906328 0.23089071 11.721895 1.7251785e-38
-4.1883841 0.25986385 11.727835 1.7346138e-38
-4.1873159 0.28889832 11.733437 1.6612177e-38
-4.1858764 0.3179135 11.739144 1.6611819e-38
-4.1792541 0.14854546 11.678961 1.0983607e-38
-4.1893063 0.17815755 11.681391 1.3370568e-38
-4.1861744 0.20708482 11.687582 1.4389027e-38
-4.1808267 0.235897 11.694405 1.7251785e-38
-4.1785069 0.26486644 11.700364 1.7346138e-38
-4.1776137 0.29391003 11.705916 1.6612177e-38
-4.1765966 0.32294714 11.711504 1.6520342e-38
-4.1741333 0.18288507 11.655431 1.3370568e-38
-4.1741071 0.21197365 11.660736 1.6518184e-38
-4.1715994 0.24093336 11.666749 1.7162466e-38
-4.1709156 0.26998776 11.672241 1.6795847e-38
-4.1707172 0.29906744 11.677595 1.6612177e-38
-4.1634574 0.24602608 11.638783 1.7162466e-38
-4.165 0.27519616 11.643641 1.6795847e-38
-5.2974415 1.1119816 13.161131 2.1759257e-38
-5.2973309 1.0815136 13.163512 1.4117502e-38
-5.2806196 1.170992 13.131024 9.8736303e-39
-5.2815089 1.1404787 13.13281 2.1942564e-38
-5.2814641 1.1100076 13.135152 2.0930583e-38
-5.2812724 1.0795434 13.137582 1.4026028e-38
-5.2815561 1.0490575 13.139728 2.2405702e-38
-5.2815194 1.018586 13.142065 2.1302244e-38
-5.2649026 1.1690062 13.10489 9.8736303e-39
-5.2659159 1.1384873 13.106602 2.1942564e-38
-5.2658634 1.1080166 13.108948 2.0930583e-38
-5.2656631 1.0775527 13.111383 1.4026028e-38
-5.2659278 1.0470676 13.113541 2.2405702e-38
-5.2658815 1.0165967 13.115884 2.1302244e-38
-5.2657022 0.98613173 13.118306 1.2551629e-38
-5.2492137 1.1670191 13.078739 9.8736303e-39
-5.2502632 1.1364986 13.080429 2.1942564e-38
-5.250195 1.1060287 13.082785 2.0930583e-38
-5.2499962 1.0755646 13.085219 1.4026028e-38
-5.2502565 1.0450797 13.087379 2.2405702e-38
-5.2502079 1.0146089 13.089724 2.1302244e-38
-5.2500362 0.98414361 13.092141 1.2551629e-38
-5.2335529 1.1650308 13.052571 9.8743519e-39
-5.2345867 1.134511 13.05427 2.1943284e-38
-5.2345157 1.1040411 13.056628 2.0747996e-38
-5.2343168 1.073577 13.059062 1.430478e-38
-5.2345777 1.0430923 13.061222 2.2313866e-38
-5.2345276 1.0126214 13.063567 2.1210408e-38
-5.2343597 0.98215604 13.065983 1.2269991e-38
-5.2188125 1.1325277 13.028171 2.1943284e-38
-5.2187347 1.1020583 13.030532 2.0747996e-38
-5.2185593 1.0715932 13.032952 1.430478e-38
-5.2188058 1.041109 13.03512 2.2313866e-38
-5.2187548 1.0106382 13.037466 2.1210408e-38
-5.2186403 0.98017031 13.03985 1.2269991e-38
-5.2029247 1.0696036 13.006768 1.430478e-38
-5.203198 1.0391182 13.008922 2.2313866e-38
-4.3073897 0.020703495 11.846683 1.2187569e-38
-4.2792773 0.031663034 11.834656 1.799545e-38
-4.2860327 0.012909699 11.809756 1.2649619e-38
-4.2614613 0.025907153 11.795494 1.3663756e-38
-4.241643 0.041640755 11.778229 1.8547898e-38
-4.2476892 0.022479389 11.753777 1.3663756e-38
-4.2222886 0.034999661 11.740037 1.8547898e-38
-3.4653211 1.3974119 11.568432 4.5201404e-39
-3.4631338 1.3790624 11.56764 4.6134207e-39
-3.4590089 1.3601719 11.563561 1.6420954e-38
-3.4580033 1.3421524 11.564775 1.7067047e-38
-3.4588187 1.3246411 11.569077 1.7067408e-38
-3.4589257 1.3069321 11.572178 1.6975572e-38
-3.4569726 1.288648 11.571783 1.7158883e-38
-3.4505954 1.399107 11.578732 4.5205006e-39
-3.4481969 1.3806984 11.577582 4.6130605e-39
-3.4444051 1.361901 11.574069 1.6050003e-38
-3.4430726 1.3437902 11.574727 1.7158883e-38
-3.4439745 1.3263031 11.579176 1.7159243e-38
-3.4441354 1.3086091 11.582368 1.7067408e-38
-3.4423938 1.2903839 11.582333 1.7159243e-38
-3.4345574 1.4181745 11.583887 3.5034508e-39
-3.4357212 1.4007605 11.58878 4.6126976e-39
-3.4334195 1.3823791 11.587794 4.7048946e-39
-3.4301858 1.3637375 11.585228 1.6137865e-38
-3.4282768 1.3454655 11.584908 1.7067046e-38
-3.4291286 1.3279645 11.589272 1.7067408e-38
-3.429239 1.3102565 11.592379 1.6975572e-38
-3.4275424 1.292044 11.59242 1.7067766e-38
-3.4215469 1.4203484 11.597097 3.5956464e-39
-3.4220526 1.4027507 11.600874 4.5197761e-39
-3.4195566 1.384315 11.599559 4.7963672e-39
-3.4178574 1.3661017 11.599595 1.6227891e-38
-3.4135776 1.347168 11.595253 1.6791539e-38
-3.4143744 1.3296516 11.599524 1.6883737e-38
-3.4144526 1.3119346 11.602576 1.7067408e-38
-3.4129078 1.2937645 11.602875 1.7067766e-38
-3.4071977 1.4221486 11.608036 3.503092e-39
-3.4071314 1.4043912 11.610843 4.4272189e-39
-3.4043834 1.3858851 11.6091 4.7041702e-39
-3.4024181 1.3675976 11.608685 1.6502311e-38
-3.3980896 1.3486502 11.60426 1.6791541e-38
-3.3989127 1.3311411 11.608576 1.6883735e-38
-3.3991232 1.3134611 11.611852 1.7067408e-38
-3.3978424 1.2953646 11.612598 1.7067766e-38
-3.3936241 1.276448 11.608361 1.6976289e-38
-3.3911445 1.4234729 11.616084 3.2268611e-39
-3.3909559 1.4056815 11.618684 4.4268574e-39
-3.3885896 1.3872819 11.617588 5.0729513e-39
-3.386656 1.3690033 11.617227 1.6224633e-38
-3.3822792 1.3500423 11.61272 1.6791541e-38
-3.3830733 1.3325253 11.616986 1.6883737e-38
-3.383225 1.3148288 11.620163 1.6975931e-38
-3.3820171 1.2967527 11.621033 1.6975931e-38
-3.378391 1.2780014 11.6178 1.7068125e-38
-3.3728015 1.4241581 11.620248 3.4108936e-39
-3.3737409 1.4066815 11.624761 4.5190544e-39
-3.37169 1.38837 11.6242 5.0725925e-39
-3.3702364 1.3702253 11.624653 1.6314299e-38
-3.3668234 1.3515335 11.621781 1.6883737e-38
-3.3677142 1.3340434 11.626212 1.6975931e-38
-3.3680117 1.3163877 11.629636 1.6884095e-38
-3.3670499 1.2983803 11.630923 1.6976289e-38
-3.3636842 1.2797017 11.628133 1.6976289e-38
-3.3584373 1.4082152 11.63408 4.4264973e-39
-3.3565881 1.3899601 11.633862 5.0729513e-39
-3.3550913 1.3718033 11.634242 1.6404324e-38
-3.3510845 1.3529457 11.630363 1.6883737e-38
-3.3518567 1.3354225 11.634592 1.6975931e-38
-3.3519559 1.3177114 11.63768 1.6884095e-38
-3.3506603 1.2996107 11.638401 1.6884454e-38
-3.346534 1.2807198 11.634319 1.697665e-38
-3.3424873 1.4095684 11.642303 4.4264959e-39
-3.3407705 1.3913502 11.642309 5.0729513e-39
-3.3392034 1.3731738 11.64257 5.8105149e-39
-3.3349605 1.3542503 11.63829 1.6791901e-38
-3.335763 1.3367356 11.642571 1.6791901e-38
-3.335865 1.3190252 11.645663 1.6884454e-38
-3.334511 1.3009082 11.646286 1.6976289e-38
-3.3302882 1.2819904 11.64204 1.7068485e-38
-3.3258877 1.4107401 11.649424 4.057349e-39
-3.3240862 1.3924984 11.649287 4.9807542e-39
-3.3222227 1.3742392 11.649044 5.4417324e-39
-3.3179617 1.3553108 11.644734 1.679226e-38
-3.3188791 1.337828 11.64921 1.6884095e-38
-3.3190365 1.3201331 11.652396 1.6884455e-38
-3.3177242 1.3020278 11.65309 1.6976289e-38
-3.3123529 1.4127678 11.661745 4.1495446e-39
-3.3102293 1.394436 11.661061 4.9807542e-39
-3.3082666 1.3761492 11.66065 5.0729513e-39
-3.3034964 1.3570786 11.655477 1.6700066e-38
-3.3043952 1.3395905 11.659921 1.6792618e-38
-3.3045177 1.3218859 11.663048 1.6884455e-38
-3.3031032 1.3037521 11.663567 1.6884454e-38
-2.8639646 0.36868954 12.282563 5.7230192e-39
-2.8617253 0.34162289 12.276225 7.2940612e-39
-2.8570671 0.31424919 12.271003 1.0995501e-38
-2.8407757 0.4006995 12.270941 1.4012309e-38
-2.8383944 0.37361482 12.264668 2.0724565e-38
-2.8386662 0.34686691 12.257172 2.3228614e-38
-2.8416383 0.32046181 12.248429 2.2866677e-38
-2.8279834 0.46081159 12.261894 1.4567721e-38
-2.8297615 0.43425491 12.253703 1.8267006e-38
-2.8325398 0.4078252 12.24505 9.4072473e-39
-2.8281894 0.38049054 12.239686 2.0724565e-38
-2.8283601 0.35372981 12.232236 2.1473624e-38
-2.8248091 0.49536219 12.24104 1.1976102e-38
-2.8177087 0.46767849 12.236944 1.4567721e-38
-2.8174753 0.44086644 12.229681 1.4757524e-38
-2.8194983 0.41434088 12.221376 1.9280426e-38
-2.8199477 0.50291628 12.213593 1.0592068e-38
-2.8126974 0.47521353 12.209566 1.3915079e-38
-2.8115206 0.44828174 12.202738 1.4757524e-38
-5.2192621 0.95508921 13.053838 1.2085965e-38
-5.2029424 1.0103744 13.018724 2.0840549e-38
-5.2028337 0.98062605 13.023814 1.2367957e-38
-5.2026458 0.95088542 13.028951 1.2639138e-38
-5.2006531 0.92132187 13.035135 1.2735303e-38
-5.2025747 0.89137417 13.039045 1.2363634e-38
-5.1885853 1.0357081 12.987498 2.2589733e-38
-5.1885872 1.0059488 12.992524 2.0840549e-38
-5.1887469 0.976174 12.997458 1.2454382e-38
-5.1885872 0.94643056 13.002578 1.2639138e-38
-5.1868811 0.91683894 13.008595 1.2735303e-38
-5.1885252 0.88691849 13.012667 1.2271077e-38
-5.1734567 1.0611174 12.95672 1.8900484e-38
-5.1733594 1.0313678 12.961803 2.2589733e-38
-5.1733665 1.001608 12.966826 2.0840549e-38
-5.1734366 0.97184205 12.971812 1.2454382e-38
-5.1732793 0.94209844 12.976931 1.2639138e-38
-5.1715894 0.91250521 12.982939 1.2735303e-38
-5.1732268 0.88258535 12.987015 1.2271077e-38
-5.1581278 1.0567873 12.931086 1.8900484e-38
-5.1581225 1.0270287 12.936115 2.2589733e-38
-5.1580982 0.99727196 12.941156 2.0840549e-38
-5.1579914 0.96752334 12.946245 1.2454382e-38
-5.1578708 0.93777609 12.951342 1.2457269e-38
