# .PCD v0.7 - Point Cloud Data file format
VERSION 0.7
FIELDS x y z
SIZE 4 4 4
TYPE F F F
COUNT 1 1 1
WIDTH 1
HEIGHT 518
VIEWPOINT 0 0 0 1 0 0 0
POINTS 518
DATA ascii
-4.3018279 1.6238983 11.707084
-4.1236048 1.639166 11.867537
-3.9163234 1.5608113 11.380068
-3.9134409 1.5765253 11.495829
-3.857794 1.5678047 11.449533
-4.4016566 1.5434092 11.73803
-4.2407198 1.5002981 11.46742
-3.8925271 1.4525695 11.230471
-3.7461696 1.4531738 11.277365
-3.5213065 1.4597124 11.390589
-3.332479 1.4682031 11.499057
-3.1758325 1.474362 11.583797
-3.0830379 1.4858482 11.687943
-3.0358241 1.5610101 12.24055
-2.937331 1.5489622 12.173977
-2.8785272 1.5614879 12.279364
-4.7938805 1.5939742 12.502342
-4.4520326 1.49174 11.826188
-4.3434 1.4630132 11.64677
-4.2347898 1.4352417 11.464337
-4.0763955 1.4010202 11.253622
-3.8661029 1.3974597 11.292095
-3.7056246 1.3992906 11.354868
-3.6241417 1.4051783 11.418175
-3.4816773 1.4079925 11.479069
-3.2235188 1.419084 11.63098
-3.1332114 1.4216251 11.671268
-3.1039159 1.4261808 11.709986
-3.005259 1.4343966 11.796132
-2.9197612 1.4403111 11.86141
-2.8436351 1.4405074 11.877836
-2.7058277 1.4509906 11.983657
-2.6593273 1.4589332 12.049197
-5.3728776 1.6720114 13.560696
-3.2937896 1.4166024 11.595542
-4.9111547 1.5335619 12.605135
-4.7955594 1.5057559 12.42065
-4.6863136 1.4722737 12.19029
-4.5062089 1.4334741 11.941474
-2.9760082 1.5007827 11.822933
-4.227283 1.3553712 11.406455
-4.1392765 1.3353841 11.27607
-3.9270635 1.3476126 11.435311
-3.8533711 1.3399674 11.394864
-3.8172665 1.3401484 11.408591
-3.6757495 1.3430669 11.476491
-3.6264703 1.3465786 11.513074
-3.4839759 1.3494519 11.577967
-3.2940807 1.358075 11.695424
-3.2618687 1.3614659 11.723135
-3.1925073 1.3651259 11.770565
-3.1422205 1.3686516 11.80814
-3.0718818 1.3722664 11.852562
-2.8799024 1.3830507 11.980974
-2.6959331 1.3778728 11.976664
-5.4733686 1.5782359 13.504833
-4.7597122 1.4185468 12.408669
-2.9975927 1.491659 11.746221
-4.2265353 1.2759795 11.380621
-4.1541777 1.2626842 11.296261
-4.0584788 1.2550378 11.256647
-2.8152332 1.4472709 11.930529
-4.1085005 1.2879212 11.516574
-4.018033 1.2598815 11.315279
-3.9165592 1.2637403 11.377466
-3.8804548 1.2639213 11.391194
-3.849236 1.2663279 11.419927
-3.6896663 1.2703366 11.494676
-3.6594245 1.2727884 11.526416
-3.4978776 1.2767513 11.59815
-3.4012361 1.283939 11.682326
-3.1580622 1.2950711 11.836351
-3.0145063 1.3000618 11.909206
-2.946084 1.3048408 11.964627
-2.8224735 1.3119496 12.044602
-2.7024028 1.3100106 12.053728
-2.671093 1.3135946 12.094444
-3.8612785 1.596751 11.648157
-5.4378867 1.4723331 13.446125
-5.1677203 1.4056944 12.942007
-3.357307 1.280774 11.673041
-5.0334282 1.3752826 12.717414
-4.9089766 1.3471886 12.513865
-4.7865019 1.3201406 12.313314
-4.6661234 1.3058549 12.231608
-3.9384966 1.1700338 11.262003
-3.9620447 1.1928772 11.452868
-3.2822084 1.2000245 11.693674
-3.208379 1.291486 11.794778
-3.1683657 1.2904866 11.796492
-3.0838528 1.2964314 11.863776
-4.2929268 1.0515186 11.483458
-2.9496512 1.2148463 11.897978
-2.9144933 1.2161314 11.918696
-2.6327384 1.2204217 12.017524
-3.675375 1.4027568 11.387593
-4.2175355 0.38412127 11.599786
-5.2871976 1.3438538 13.150851
-2.9678161 0.98284036 11.898548
-4.2293744 0.75598627 11.45235
-4.7887201 1.2348256 12.292591
-4.0350771 0.54762071 11.910033
-4.6682286 1.2098083 12.094026
-4.1540971 0.74652553 11.356909
-4.6526527 1.2169217 12.169814
-4.3647361 1.1497816 11.632565
-2.9986494 1.373672 11.882994
-4.2659097 1.1294311 11.478101
-4.0845513 1.1001182 11.262138
-3.8195078 1.180886 11.391964
-2.7675374 1.1500014 12.051587
-2.7106822 1.1606323 12.164017
-4.9634957 0.77093524 12.633821
-5.4313574 1.282653 13.401878
-4.7887883 1.1488055 12.291864
-4.1181221 0.65956807 11.361926
-4.6781135 1.1281503 12.117312
-4.5606065 1.1041646 11.920755
-4.3947005 1.0709748 11.644959
-4.5298915 1.5809195 11.969473
-4.0543895 1.0105659 11.159223
-3.9132934 1.0985121 11.295877
-4.1212802 -0.0029290735 11.670799
-3.5890594 1.0278161 11.465504
-2.8401446 0.17311597 12.198614
-3.5134249 1.0350043 11.548839
-3.0242686 1.0518966 11.831943
-2.8280609 1.0780752 12.122116
-4.1978998 1.113458 11.347807
-2.6457288 1.0646554 12.03393
-5.4249277 1.1886514 13.335212
-4.5304084 0.64514071 11.991332
-3.3435678 1.0415682 11.661478
-5.0365949 1.1172984 12.720258
-4.7029262 1.0526357 12.149622
-4.0347838 0.31550485 11.971476
-4.6059771 1.0365231 12.01111
-4.4695897 1.0881897 11.791288
-3.2208877 0.0011687175 11.984999
-3.9039848 0.95230609 11.350978
-3.6419804 0.95809919 11.482937
-2.7889595 1.221091 11.988687
-2.9584405 0.0048354608 12.175994
-3.6087923 0.95944512 11.507669
-3.4179966 0.96487534 11.612166
-2.6760228 1.0001507 12.134127
-4.9631491 0.61282605 12.695168
-5.4938998 1.1188123 13.478786
-4.9644437 1.0257007 12.616055
-4.7581897 0.98720849 12.254021
-4.6475215 0.96753836 12.078455
-5.1553087 1.2207725 12.881642
-4.9164348 1.4451312 12.576479
-4.4429188 0.9337281 11.76237
-3.8147066 0.88288546 11.394339
-3.6981206 0.88695532 11.471411
-3.4892426 0.89253533 11.586771
-4.6947646 0.82624692 12.192918
-5.1548133 1.3166207 12.938228
-5.0265799 0.94654661 12.738712
-3.3267188 0.89545333 11.655513
-3.1065145 0.9056614 11.813725
-2.9155142 0.91349113 11.945188
-5.4286447 1.0124437 13.389855
-3.3470411 1.2852845 11.707902
-4.5940094 0.87466544 12.022419
-4.3962526 0.84515584 11.726325
-5.0298324 1.1967219 12.681026
-4.3033175 0.83101636 11.585814
-3.2130539 1.1243823 11.721276
-4.1949167 0.89071721 11.367084
-3.0231133 1.1330941 11.844733
-3.928668 0.80613983 11.407335
-4.2619433 0.90466017 11.4954
-2.9508429 1.1355743 11.880157
-3.807173 0.80902845 11.472386
-3.6144009 0.81341296 11.573883
-3.5782812 0.81362361 11.58961
-3.509958 0.81621039 11.632063
-3.3289473 1.4153171 11.574823
-4.5100279 1.0204113 11.872607
-3.4255147 0.81902236 11.690393
-3.3181171 0.82172877 11.742552
-3.1271777 0.82844019 11.866031
-3.0920277 0.8297106 11.88575
-3.0065234 0.83364022 11.952057
-4.265696 0.60953933 11.556806
-2.9371624 0.83630019 11.9995
-2.829674 0.84018415 12.063643
-4.9141579 1.2609501 12.498178
-2.7925313 0.84143835 12.082347
-2.7098832 0.84665126 12.167659
-5.4151444 0.93455368 13.330898
-3.2595584 0.56599969 12.372983
-3.320564 0.75593799 11.689536
-5.033751 0.87630779 12.722803
-4.9151726 0.85845393 12.535149
-3.2554564 0.89691967 11.689959
-3.744638 1.4002892 11.353147
-4.8034797 0.84282708 12.362514
-5.3033137 1.16687 13.152593
-4.6080709 0.81063825 12.020472
-4.4113369 0.78208482 11.721371
-4.3154469 0.76785439 11.574839
-5.4421778 1.3778874 13.416552
-3.9940252 0.5476945 11.916724
-4.0686159 0.73945707 11.288361
-3.1345899 1.0503402 11.789791
-4.0984106 0.74187833 11.315553
-3.0565176 1.0494316 11.799217
-5.1582389 0.89534342 12.922487
-3.9661586 0.74128562 11.34857
-3.8568754 0.74176872 11.385744
-4.7071896 1.3067514 12.222902
-4.2133069 0.81702709 11.455325
-2.9168179 1.0557064 11.891085
-3.8066275 0.74322069 11.418348
-3.70123 0.74592859 11.470522
-3.6670804 0.74619991 11.490263
-5.6240492 0.86787391 13.749517
-4.1363206 1.1045996 11.292466
-2.6780312 1.061087 11.99422
-3.4233165 0.56162363 12.273268
-3.5123899 0.75044924 11.581047
-3.9811466 1.1018424 11.315341
-3.0585904 0.57076329 12.500416
-3.1296554 0.76159036 11.809031
-3.0622261 0.76538497 11.865475
-3.5072157 1.1912048 11.561482
-2.989964 0.76685053 11.899913
-3.4027808 1.1939874 11.618662
-4.1838245 0.52734053 11.547404
-2.8673553 0.77096033 11.979939
-3.2290642 0.9725734 11.734647
-3.9896052 1.455477 11.220157
-3.1686518 0.33203241 12.51578
-3.1226442 0.97532493 11.789811
-4.0180802 0.65858424 11.367188
-3.9448709 0.65894556 11.394634
-2.8061163 0.91719598 11.997315
-4.0039649 -0.0083164619 11.446964
-5.4772458 0.5937829 13.616449
-3.6206203 0.48725709 12.240849
-3.7199342 0.66363245 11.517887
-3.5844474 0.48857126 12.263561
-3.6135521 0.66531008 11.568068
-5.6090393 0.78699034 13.758602
-4.1129851 1.0173926 11.21257
-4.6129484 0.016837215 12.512326
-3.5945227 0.66535544 11.571925
-4.9419947 1.0965067 12.535828
-2.7090523 0.69451916 12.159903
-3.7676425 1.0257912 11.388868
-3.7531221 0.66228646 11.493155
-3.6910031 0.48555326 12.190398
-4.7428961 0.67119461 12.323594
-4.2666626 1.6251984 11.728802
-2.9296613 0.086242132 12.271585
-5.1679735 1.1415458 12.933917
-4.6312547 0.65746385 12.143931
-3.2487795 0.82334447 11.78701
-4.1053596 0.59218115 11.336824
-3.7214177 0.39890435 12.010885
-3.8969741 0.5917995 11.387266
-5.4190965 0.49819601 13.512413
-4.3224058 1.2972388 11.529049
-3.6780813 0.32260612 12.195714
-3.7042484 0.59409547 11.482794
-5.2386675 0.48500046 13.30422
-3.6720452 0.59547174 11.509535
-3.394958 0.076080643 11.836181
-5.5770774 0.69002205 13.762797
-4.0264192 0.95053649 11.293919
-3.4953861 0.59864599 11.596169
-2.7846196 1.539304 12.135964
-3.3204894 0.49227428 12.389535
-3.4217272 0.66979891 11.676572
-3.220669 0.49681532 12.49773
-5.0598722 0.71426976 12.855417
-3.3010688 0.60809511 11.769588
-3.7277329 1.2702311 11.485963
-4.8476958 0.68460935 12.482206
-3.1987786 0.41768959 12.490737
-3.2679613 0.67419708 11.777362
-3.731523 1.0260018 11.404595
-4.0410838 0.37097305 11.394622
-3.1810207 0.60611159 11.775714
-4.0875154 0.37511712 11.46992
-3.1082709 0.67844284 11.868109
-3.0721357 0.67968297 11.88582
-5.2868543 1.4374059 13.187469
-2.9695342 0.68379259 11.964997
-2.8088286 0.68806714 12.057736
-3.7976258 0.95393938 11.398159
-4.7696071 0.58888942 12.37002
-5.6371417 1.1443349 13.710519
-5.1200099 0.63311434 12.978089
-3.990314 0.51229864 11.350142
-4.0375004 0.54479349 11.854085
-4.9437637 0.11419864 12.927435
-2.775557 0.69057584 12.093453
-3.8162365 0.54316568 11.888448
-3.2272499 0.5675832 12.413721
-5.5637956 1.3077826 13.607532
-2.6982687 0.62517828 12.137845
-4.5305324 0.7128076 11.968328
-3.3183286 1.1988139 11.677962
-5.0224824 1.2882842 12.718619
-4.3519392 0.918679 11.627889
-3.7610421 0.5435105 11.91403
-4.123836 0.071879841 11.5897
-4.3113503 0.98475367 11.566596
-3.703445 0.53968406 11.860646
-3.6702118 0.5411188 11.891377
-3.5130932 0.52333355 11.642424
-4.1747937 0.66424567 11.40529
-3.6287341 1.1872718 11.493446
-3.6158476 0.74762154 11.520861
-4.7037354 0.102205 12.53275
-3.531842 0.55866635 12.204119
-3.5117943 1.1071806 11.49275
-3.3861744 0.56187797 12.291986
-3.4369309 1.1927161 11.598935
-3.4250066 0.75314063 11.631356
-3.3338509 0.56447637 12.334559
-4.5072494 0.79527104 11.864919
-3.3590498 1.1135348 11.590519
-3.2326303 1.1162719 11.645535
-3.416734 -0.0013618806 11.873496
-4.1294279 0.88267821 11.299701
-3.2009254 0.76010925 11.773584
-3.1519802 0.5690614 12.449137
-5.3245697 0.74890089 13.29196
-3.7710536 0.80923903 11.488113
-5.4668007 0.76845294 13.525774
-3.1574893 1.1164985 11.663967
-3.3786523 -0.0012267247 11.884209
-4.0874448 0.88161808 11.297399
-3.1628509 0.76022965 11.783298
-3.0918539 0.56926936 12.465684
-3.1105194 1.1293584 11.79144
-4.035027 0.80450654 11.360154
-3.7855103 1.1049585 11.398832
-5.2773981 1.2505754 13.133156
-4.7459717 0.74295199 12.306553
-5.6093936 1.2257134 13.669099
-3.3460803 0.91566408 11.871388
-3.8631849 1.5789921 11.529419
-4.9119263 0.92884374 12.561086
-3.4153233 1.4116398 11.525521
-2.7549841 0.54687983 12.183438
-5.3615131 0.58222669 13.448726
-4.0908713 1.3241949 11.19786
-5.5708961 1.034951 13.620625
-5.0458117 0.54460388 12.879827
-3.9830933 1.3846064 11.162148
-4.4036222 0.085376158 12.016666
-4.9811473 0.54090554 12.835387
-4.2576413 0.46580017 11.710894
-4.979795 0.45374414 12.757657
-2.8320968 1.1429533 11.978168
-4.3146043 1.5235116 11.613652
-3.701761 0.81076598 11.526573
-4.0615158 0.15638869 11.490966
-2.9095802 0.17130776 12.141156
-4.7643218 0.44061196 12.5552
-3.8202078 0.32941195 12.3117
-2.831991 0.23932491 12.212574
-3.0620937 0.002622745 12.089795
-3.7141974 0.95672244 11.454497
-5.3287411 0.8254661 13.261853
-3.6067362 0.32423523 12.241158
-5.3210297 0.49030387 13.388774
-4.1585994 1.4805374 11.352077
-4.6244826 0.18859835 12.291841
-3.5509553 1.4054953 11.442623
-4.1843333 0.3844969 11.626533
-5.2174034 0.80714375 13.042255
-3.4109364 1.0388918 11.613018
-2.8503375 0.6171869 11.997089
-3.9002242 0.53628755 11.758164
-4.0335255 0.47879708 11.990051
-2.7808089 0.54923898 12.206601
-5.093823 1.0489469 12.829716
-3.4470413 1.0377109 11.599305
-3.2903497 1.0439585 11.690044
-4.8214569 1.0745779 12.343217
-3.344449 0.00014807239 11.910933
-3.2181025 1.0453944 11.722484
-5.3379869 1.5470011 13.292246
-4.8688884 1.0058194 12.425604
-3.1805949 0.49693424 12.507428
-3.4672043 0.075644583 11.803727
-4.1064692 0.951491 11.287507
-3.5315132 0.59842056 11.579442
-2.9796627 0.40981296 12.373186
-2.8084073 0.47914049 12.266855
-2.919874 0.17966132 12.367142
-5.3554459 0.39859778 13.475402
-4.0633759 0.59112108 11.334522
-4.2147999 0.076974437 11.727329
-4.9652781 0.36486885 12.834874
-4.8055601 0.90758461 12.34557
-3.0398874 0.68114799 11.91856
-4.6997919 0.34080648 12.369165
-4.214705 1.0379525 11.381055
-2.7083402 0.99655265 12.092418
-3.9059205 -0.0063295397 11.585215
-3.1827831 0.0013482845 11.998711
-3.835685 0.9538486 11.390447
-3.8277049 0.59228218 11.422742
-3.70839 0.32102114 12.15496
-4.9063487 1.1716876 12.481438
-2.7265801 0.77738255 12.081798
-5.5647674 0.96329492 13.644643
-3.536386 -0.0025630691 11.787403
-3.4531238 0.9646492 11.595432
-3.4350133 0.52243966 11.65285
-3.3101275 0.32423362 12.320934
-3.8949785 1.0242176 11.344845
-3.8424215 0.66075933 11.453844
-3.7242362 0.48411855 12.159666
-2.86538 0.082788788 12.176138
-3.5243785 0.96319777 11.561986
-4.3159227 0.0038325007 11.984208
-3.9398205 1.4500266 11.191858
-3.194149 0.33007377 12.449992
-3.7030666 1.1087717 11.457163
-5.3693309 1.0979397 13.290129
-4.6323552 0.72617573 12.123919
-3.2136292 0.824615 11.80673
-5.1810851 1.5078185 13.016606
-4.1695585 0.52189422 11.450363
-3.6612608 1.0274688 11.439049
-3.925204 1.0227956 11.315089
-4.492188 0.85929751 11.866857
-3.3836606 0.66990447 11.685285
-3.5369365 1.2766613 11.590445
-4.1774216 0.16657422 11.768726
-2.8103981 0.31241262 12.151321
-2.902513 0.76967514 11.959221
-4.1402636 0.45154703 11.496191
-3.7140892 -0.0038256322 11.694748
-4.5763903 1.5250109 12.041661
-4.0445375 1.0991187 11.263851
-5.016603 0.28633651 12.932437
-4.6804881 0.58010757 12.253462
-4.809845 0.27180392 12.635053
-4.0515094 0.069509365 11.500177
-3.332139 1.3589842 11.687697
-5.0477638 1.4764667 12.796035
-4.5408072 0.94995975 11.908887
-2.8307838 0.39355963 12.092265
-2.8119349 0.99145865 12.014263
-4.0172114 -0.0068260138 11.547056
-4.785408 0.27464476 12.692835
-2.8270411 1.2209558 11.977975
-4.0304017 0.22050712 11.499784
-4.9599891 0.21163704 12.888109
-4.0630374 0.44498092 11.393692
-4.0964718 0.28835598 11.351256
-4.4748893 1.6498282 11.83002
-5.4758883 0.84618443 13.506688
-2.7114143 0.77869719 12.103667
-2.9030297 0.24525683 12.34004
-3.3145082 0.96876222 11.676338
-4.0178699 1.4519796 11.185417
-3.2361705 0.33005998 12.447309
-4.3077259 0.081144594 11.869987
-4.8288155 0.52653813 12.614423
-3.8375831 -0.0047130431 11.629683
-4.8232379 0.10822366 12.731589
-2.6863406 0.92363346 12.099333
-2.8982568 1.5490818 12.183682
-3.5652366 0.6668967 11.609687
-3.9979453 0.80464238 11.370874
-4.9067855 0.030209815 13.065419
-4.0475721 1.3966589 11.230465
-4.5034719 0.090699352 12.169361
-3.9458668 0.30832312 11.827892
-2.8311975 0.77224493 12.000651
-3.6076553 -0.0030442551 11.751943
-3.1124387 0.0019782269 12.044177
-4.7510295 0.022698764 12.767316
-4.1499319 0.15959305 11.568595
-2.8039839 0.30329895 11.94138
-4.1958075 0.82299113 11.521114
-2.8293664 1.059531 11.950377
-5.4917459 0.68365741 13.674236
-4.0095253 0.069449186 11.497862
-2.7122269 1.059727 11.968494
-3.989511 0.069464229 11.499711
-3.7128391 1.3429161 11.464771
-4.8508015 0.75630754 12.461165
-4.5940514 0.09654887 12.357983
-3.5192811 -0.0023682124 11.801273
-3.9172349 1.3273269 11.281517
-4.412766 0.0081684301 12.137896
-3.522027 1.3503758 11.571239
-4.1907277 0.23089564 11.721869
-5.2428532 1.075888 13.089476
-4.2171316 0.0003914125 11.823493
-3.4014628 1.3553983 11.645267
-2.7874706 0.40210405 12.265838
-5.1559982 0.96771896 12.947403
-4.4325399 0.63286418 11.841756
-4.337626 0.6206786 11.698202
-4.1915317 0.96637291 11.410944
-3.5989635 0.53360158 11.791939
-4.7939377 1.4171276 12.378944
-2.9156549 1.1369189 11.904876
-4.8005099 0.43926823 12.53049
-3.0019965 0.98150998 11.874823
-5.1961341 0.73275834 13.085202
-3.2923701 0.40763399 12.280561
-5.2854238 0.9888764 13.155093
-4.3770137 1.6245826 11.682636
-3.0239742 0.0028319149 12.105507
