# .PCD v0.7 - Point Cloud Data file format
VERSION 0.7
FIELDS x y z rgb
SIZE 4 4 4 4
TYPE F F F F
COUNT 1 1 1 1
WIDTH 1056
HEIGHT 1
VIEWPOINT 0 0 0 1 0 0 0
POINTS 1056
DATA ascii
-3.9903078 0.77688819 11.364807 1.9375495e-38
-3.9907274 0.75884742 11.368988 1.92833e-38
-3.9906347 0.74139184 11.374592 1.9282942e-38
-3.9902704 0.72355002 11.378968 1.9559524e-38
-3.9896648 0.70557952 11.382651 1.9559883e-38
-3.9887319 0.68757057 11.38631 1.9927584e-38
-3.9873612 0.66937578 11.389145 2.0019778e-38
-3.9733937 0.72398168 11.381461 1.9559883e-38
-3.9726529 0.70622689 11.385708 1.9651719e-38
-3.2125189 1.1331352 11.745008 2.2572699e-38
-3.2124138 1.1159306 11.74626 1.3184695e-38
-3.2122419 1.0987777 11.747364 1.8996869e-38
-3.2124317 1.0816662 11.749035 1.2462693e-38
-3.2124083 1.0644759 11.750423 1.272671e-38
-3.2124758 1.0471401 11.752048 9.0312004e-39
-3.2120757 1.029932 11.752796 4.3342974e-39
-3.2113533 1.0126727 11.753035 7.0065133e-39
-3.2097046 0.99531865 11.751787 1.2268895e-38
-3.2088311 0.97800201 11.751807 1.8360282e-38
-3.2082026 0.96071821 11.752221 1.9926866e-38
-3.1976404 1.133828 11.753695 1.2913487e-38
-3.1976328 1.1166681 11.75508 1.4933541e-38
-3.1974659 1.0995198 11.756197 1.6976289e-38
-3.1977372 1.0824155 11.757989 1.7528377e-38
-3.197773 1.0652152 11.759489 1.2910023e-38
-3.1978028 1.0478946 11.761057 9.3074272e-39
-3.1973927 1.0307231 11.761762 4.3339359e-39
-3.1967745 1.0134443 11.762206 5.4413624e-39
-3.1950674 0.9960776 11.760859 1.2358924e-38
-3.1942492 0.97877628 11.760962 1.8452476e-38
-3.1935694 0.96149087 11.761288 2.0110537e-38
-3.1828849 1.1345317 11.762589 1.4385429e-38
-3.1828475 1.1173799 11.763912 2.3492578e-38
-3.1826503 1.1002201 11.764982 2.2865595e-38
-3.18294 1.0831186 11.766831 2.3500818e-38
-3.1829593 1.0659087 11.768286 1.3649645e-38
-3.182941 1.0486023 11.769768 1.0505247e-38
-3.1824849 1.0314602 11.770368 4.2421004e-39
-3.181776 1.0141259 11.770691 5.1651399e-39
-3.180269 0.99678004 11.769672 1.2542234e-38
-3.1793442 0.97947776 11.769618 1.8821612e-38
-3.1787589 0.96221584 11.770075 2.0386403e-38
-3.1680613 1.135219 11.771383 1.1174101e-38
-3.1680658 1.1180674 11.772768 1.2657818e-38
-3.1679077 1.1008891 11.773906 1.1450338e-38
-3.1681082 1.0837771 11.775611 1.0629821e-38
-3.1680908 1.0665964 11.776992 1.308998e-38
-3.1680696 1.0493156 11.778429 1.0321579e-38
-3.1675293 1.0322074 11.77889 4.3339359e-39
-3.1668782 1.0148696 11.779306 5.1651413e-39
-3.1653204 0.99746627 11.778237 1.2448236e-38
-3.1646276 0.9802193 11.778542 1.725431e-38
-3.1640494 0.96296871 11.77902 1.9742837e-38
-3.1532676 1.1359366 11.780199 1.1271961e-38
-3.1533217 1.1187768 11.781679 1.2179555e-38
-3.1531565 1.1015955 11.782801 1.0605914e-38
-3.1533453 1.0844792 11.784484 9.2289867e-39
-3.1531773 1.0672927 11.785617 1.2262404e-38
-3.1530502 1.0499973 11.786879 1.0321218e-38
-3.1526206 1.0329204 11.787519 4.3339359e-39
-3.1517811 1.0155452 11.787642 4.7041603e-39
-3.1504331 0.99817508 11.786902 1.2445348e-38
-3.1498482 0.98096097 11.787366 1.706992e-38
-3.1493483 0.96372664 11.787968 1.9742837e-38
-3.1385891 1.1366538 11.789214 1.4296832e-38
-3.1387019 1.1195061 11.790771 1.2821347e-38
-3.1384873 1.1023294 11.791813 1.1905926e-38
-3.1385205 1.0851862 11.79325 1.1254747e-38
-3.1381712 1.067963 11.794102 9.1364183e-39
-3.1379323 1.0506561 11.795165 8.6667507e-39
-3.1374447 1.0336207 11.795715 4.3339345e-39
-3.1368434 1.0162883 11.796194 4.4275735e-39
-3.135489 0.99885434 11.795495 1.2535377e-38
-3.1350734 0.98167652 11.7962 1.7070279e-38
-3.1345694 0.96444511 11.796806 2.0478238e-38
-3.1239443 1.1374111 11.79824 1.7067405e-38
-3.1239784 1.120249 11.799704 1.4856163e-38
-3.1237352 1.1030577 11.800694 1.3744371e-38
-3.1237364 1.0859079 11.802078 1.2819171e-38
-3.1232989 1.0686684 11.802794 1.1986896e-38
-3.1230736 1.0513819 11.803892 4.7045275e-39
-3.1225669 1.0342983 11.80439 4.3339331e-39
-3.1220016 1.0169756 11.804939 4.4272133e-39
-3.1208925 0.9996044 11.804616 1.2350267e-38
-3.120388 0.98240989 11.805191 1.6609666e-38
-3.1199224 0.96518636 11.805849 1.9926508e-38
-3.1093774 1.1381665 11.807409 1.7896077e-38
-3.1093099 1.1209913 11.808703 1.6238723e-38
-3.1089835 1.1037911 11.809566 1.5128037e-38
-3.1089189 1.086633 11.810845 1.4297553e-38
-3.1084449 1.0693848 11.811507 1.3374882e-38
-3.108223 1.0520968 11.812651 5.1665958e-39
-3.1077454 1.0350173 11.81315 4.3342946e-39
-3.1071372 1.0176933 11.813639 4.4275777e-39
-3.1062634 1.0003605 11.813681 1.2165877e-38
-3.1057615 0.98315889 11.814268 1.6240531e-38
-3.1053438 0.96594548 11.814996 1.9282583e-38
-3.094846 1.1389186 11.816693 1.6976287e-38
-3.0947225 1.12173 11.817862 1.6698619e-38
-3.0943465 1.1045212 11.818649 1.6142913e-38
-3.0942287 1.0873564 11.819838 1.5772326e-38
-3.0937171 1.070106 11.820438 1.5310265e-38
-3.0933337 1.0527471 11.821357 8.2072454e-39
-3.0928731 1.0355748 11.82194 6.8152908e-39
-3.0924795 1.0183316 11.822712 8.2954571e-39
-3.0916433 1.0010695 11.822782 1.3087824e-38
-3.0910668 0.9838686 11.823246 1.6609666e-38
-3.0907545 0.96666902 11.82415 1.9282224e-38
-3.0803559 1.1396838 11.826037 1.7253591e-38
-3.0801497 1.1224813 11.827049 1.7253591e-38
-3.0797207 1.1052645 11.827738 1.7253591e-38
-3.0794609 1.0880841 11.828687 1.7161756e-38
-3.0790217 1.0708561 11.829391 1.660787e-38
-3.078517 1.0535204 11.83009 1.0806093e-38
-3.0782003 1.0363449 11.830923 1.1173074e-38
-3.0777118 1.0191277 11.831544 1.2375907e-38
-3.0769482 1.0018346 11.831748 1.466964e-38
-3.0765102 0.98461413 11.832462 1.7163192e-38
-3.076273 0.96742725 11.833464 1.9282224e-38
-3.0658312 1.1404557 11.835269 1.7622368e-38
-3.0656104 1.1232493 11.836292 1.7438338e-38
-3.0650973 1.1060159 11.836825 1.7530891e-38
-3.0647955 1.0888264 11.837697 1.7807475e-38
-3.0644574 1.0716132 11.838556 1.7900028e-38
-3.0640197 1.0543375 11.839308 1.7807474e-38
-3.0636444 1.0371532 11.840078 2.0109102e-38
-3.0631766 1.019933 11.840725 2.2040159e-38
-3.0624549 1.0026375 11.841019 1.7716357e-38
-3.0620065 0.98539162 11.84172 1.7900028e-38
-3.061841 0.96822006 11.842836 1.937406e-38
-4.1496124 0.81524587 11.361828 1.3378509e-38
-4.1498065 0.80031127 11.364614 1.3563986e-38
-4.1501198 0.78538346 11.367041 1.3564349e-38
-4.1500344 0.77111858 11.37235 1.3656906e-38
-4.1494923 0.75690293 11.378479 1.4210081e-38
-4.1357303 0.82993144 11.357368 1.402533e-38
-4.1359377 0.81472367 11.359132 1.3932776e-38
-4.1359925 0.79980022 11.361976 1.402533e-38
-4.1360917 0.78490198 11.364858 1.402533e-38
-4.1357708 0.77072018 11.370807 1.4117887e-38
-4.1353869 0.75655401 11.37701 1.448703e-38
-4.1349745 0.7421186 11.381968 1.4117884e-38
-4.1345792 0.7278282 11.387425 1.4211165e-38
-4.1343727 0.71338451 11.392303 1.430372e-38
-4.1215768 0.82964998 11.355419 1.4947288e-38
-4.1217122 0.81453061 11.357631 1.4671062e-38
-4.121882 0.79946536 11.359888 1.4026415e-38
-4.121747 0.78476405 11.363905 1.4210083e-38
-4.1214457 0.77052605 11.369637 1.4394836e-38
-4.1211805 0.75640464 11.375916 1.5318225e-38
-4.1209016 0.74180818 11.380476 1.4764697e-38
-4.1206193 0.72742683 11.385641 1.4395557e-38
-4.1204967 0.71287656 11.390228 1.4488472e-38
-4.1208582 0.69788557 11.393039 1.4488113e-38
-4.1068277 0.82968628 11.355016 1.6331646e-38
-4.1070299 0.81442988 11.356664 1.4762525e-38
-4.1071348 0.79939431 11.359095 1.3934216e-38
-4.1069927 0.78478837 11.36363 1.4671783e-38
-4.106833 0.77040476 11.368821 1.4764338e-38
-4.1065412 0.75624913 11.374866 1.7808909e-38
-4.1064162 0.74150217 11.378929 1.7716715e-38
-4.1062303 0.72695577 11.383615 1.7070277e-38
-4.1062531 0.71220893 11.387438 1.651819e-38
-4.1063123 0.69742173 11.391164 1.5872829e-38
-4.1064329 0.68255675 11.394679 1.5226749e-38
-4.0918951 0.8294214 11.35379 1.7899668e-38
-4.0921221 0.81415629 11.355372 1.6420232e-38
-4.0921865 0.79915595 11.357889 1.7344703e-38
-4.0920835 0.78450638 11.362268 1.817661e-38
-4.0919237 0.7701022 11.367491 1.7992221e-38
-4.0916595 0.75580096 11.373005 1.8546105e-38
-4.0915704 0.74107116 11.377183 1.8730852e-38
-4.0915151 0.72635418 11.381144 1.8730852e-38
-4.0914526 0.71162325 11.385033 1.8270958e-38
-4.0915108 0.6966961 11.38819 1.7902181e-38
-4.091547 0.6817627 11.391509 1.7165344e-38
-4.0774202 0.82873899 11.351826 1.7437259e-38
-4.0774975 0.8136422 11.354133 1.7437259e-38
-4.0775285 0.79859668 11.356344 1.8360639e-38
-4.0774999 0.78381658 11.360052 1.8730494e-38
-4.0773492 0.76930934 11.365026 1.8730135e-38
-4.0770364 0.75498909 11.370468 1.8546105e-38
-4.0768991 0.74038726 11.374856 1.8730852e-38
-4.0767875 0.72570825 11.378771 1.9283659e-38
-4.0767117 0.71095973 11.382558 1.9283659e-38
-4.0766344 0.69608921 11.385777 1.9375853e-38
-4.0765991 0.68106532 11.388623 1.9099629e-38
-4.0624533 0.81351113 11.35303 1.8083338e-38
-4.062428 0.79862487 11.356176 1.8913806e-38
-4.0624366 0.78364116 11.358949 1.9098912e-38
-4.0624251 0.76904279 11.363712 1.9006359e-38
-4.0621781 0.75467181 11.369207 1.9190747e-38
-4.0619478 0.74015343 11.373696 1.92833e-38
-4.0617208 0.72542429 11.377453 1.9283659e-38
-4.0616169 0.71058744 11.380894 1.9283659e-38
-4.0614114 0.69577432 11.384494 1.9467689e-38
-4.0612397 0.68073642 11.387341 1.9467689e-38
-4.047595 0.79832441 11.35513 1.9006359e-38
-4.0476151 0.78353393 11.3589 1.9191106e-38
-4.0476041 0.76891077 11.363423 1.9191106e-38
-4.0473604 0.75439167 11.368134 1.92833e-38
-4.0470948 0.73983127 11.372514 1.9283659e-38
-4.0469203 0.72504216 11.375996 1.9375495e-38
-4.046648 0.71023285 11.379422 1.9467689e-38
-4.0463667 0.69549966 11.383344 1.9559883e-38
-4.0460896 0.68034095 11.385718 1.9835748e-38
-4.0327201 0.7542671 11.36795 1.9191465e-38
-4.0325308 0.73961937 11.371997 1.9283659e-38
-4.0323582 0.72482538 11.375464 1.9375495e-38
-4.0319772 0.71004665 11.378838 1.9651719e-38
-4.0315399 0.69518459 11.382155 1.9743554e-38
-3.1465647 1.1288131 11.785028 1.2179555e-38
-3.1464615 1.1128635 11.78613 1.0605914e-38
-3.1463544 1.0968852 11.787241 9.2289867e-39
-3.1462772 1.0808903 11.788434 1.2262404e-38
-3.1461718 1.0648726 11.789572 1.0321218e-38
-3.1459243 1.0488745 11.790469 4.3357394e-39
-3.145587 1.0328327 11.791239 4.3339359e-39
-3.1450052 1.0167105 11.791615 4.7041603e-39
-3.1436872 1.0004404 11.79087 1.2445348e-38
-3.1432152 0.98440009 11.79142 1.706992e-38
-3.1426461 0.96829349 11.79183 1.9742837e-38
-3.1329103 1.1294922 11.793458 1.2821347e-38
-3.1327615 1.1135204 11.794488 1.1905926e-38
-3.1326678 1.0975502 11.795638 1.1254747e-38
-3.1324635 1.081537 11.796614 9.1364183e-39
-3.1323981 1.0655203 11.797816 8.6667507e-39
-3.132082 1.0494587 11.79862 4.5197719e-39
-3.1317351 1.0334288 11.79938 4.3339345e-39
-3.131036 1.0172853 11.799582 4.4275735e-39
-3.1299634 1.0010906 11.799197 1.2535377e-38
-3.1294582 0.98505545 11.799685 1.7070279e-38
-3.1289308 0.96895188 11.800167 2.0478238e-38
-3.119314 1.1302145 11.801955 1.4856163e-38
-3.1190693 1.1142159 11.802845 1.3744371e-38
-3.1188917 1.0982281 11.803851 1.2819171e-38
-3.1185868 1.0821943 11.804657 1.1986896e-38
-3.1185005 1.0661784 11.805822 1.0506706e-38
-3.118201 1.050099 11.806681 4.7045275e-39
-3.1178787 1.0340887 11.807451 4.3339331e-39
-3.1171849 1.0179518 11.807691 4.4272133e-39
-3.1162069 1.0017661 11.807461 1.2350267e-38
-3.115695 0.98571503 11.807948 1.6609666e-38
-3.1153145 0.96963692 11.808656 1.9926508e-38
-3.1056402 1.130901 11.810349 1.6238723e-38
-3.1054304 1.1149129 11.811289 1.5128037e-38
-3.1051836 1.0989192 11.812177 1.4297553e-38
-3.1049068 1.0828952 11.813034 1.3374882e-38
-3.1046541 1.0668417 11.813947 1.2168043e-38
-3.1042848 1.0507078 11.814711 5.1665958e-39
-3.1039333 1.0346999 11.815444 4.3342946e-39
-3.1034167 1.0185987 11.815943 4.4275777e-39
-3.102494 1.0024512 11.815794 1.2165877e-38
-3.1020331 0.98640901 11.816355 1.6240531e-38
-3.1018178 0.97035778 11.817326 1.9282583e-38
-3.0920765 1.1316093 11.818912 1.6698619e-38
-3.0917971 1.1156132 11.819734 1.6142913e-38
-3.0915194 1.099625 11.820539 1.5772326e-38
-3.0912046 1.083602 11.821334 1.5310265e-38
-3.090874 1.0675498 11.822118 1.4381082e-38
-3.0904262 1.051384 11.822806 8.2072454e-39
-3.0900738 1.0353974 11.823534 6.8152908e-39
-3.0896151 1.0193321 11.82412 8.2954571e-39
-3.0888748 1.003195 11.824252 1.3087824e-38
-3.0884504 0.98712099 11.824891 1.6609666e-38
-3.08811 0.97104007 11.825663 1.9282224e-38
-3.0785339 1.1323022 11.827519 1.7253591e-38
-3.0782168 1.1162958 11.828271 1.7253591e-38
-3.0778928 1.1002988 11.829007 1.7161756e-38
-3.077579 1.0842705 11.829803 1.706956e-38
-3.0772178 1.0682209 11.83054 1.660787e-38
-3.076767 1.0520873 11.83121 1.0806093e-38
-3.0763919 1.036096 11.831898 1.1173074e-38
-3.075901 1.0200084 11.832417 1.2375907e-38
-3.0753183 1.0039035 11.832819 1.466964e-38
-3.0748637 0.98780012 11.833419 1.7163192e-38
-3.0745699 0.97173178 11.834275 1.9282224e-38
-3.064976 1.1329924 11.836119 1.7438338e-38
-3.0646207 1.1169752 11.836786 1.7530891e-38
-3.0642099 1.1009616 11.837404 1.7807475e-38
-3.0637956 1.0849156 11.838049 1.789967e-38
-3.0635574 1.0688878 11.838974 1.7900028e-38
-3.0632155 1.0527698 11.839813 1.7807474e-38
-3.0628011 1.0367725 11.840412 2.0109102e-38
-3.0623591 1.0206934 11.841013 2.2040159e-38
-3.0617611 1.0045838 11.841388 1.7716357e-38
-3.0613272 0.98848331 11.842046 1.7900028e-38
-3.0611286 0.97243428 11.843048 1.937406e-38
-3.0513971 1.1336842 11.844688 1.7715281e-38
-3.0510242 1.1176578 11.845314 1.7807117e-38
-3.0505614 1.10163 11.845838 1.771528e-38
-3.0502596 1.0856036 11.846661 1.789967e-38
-3.0499911 1.069573 11.847563 1.7991864e-38
-3.0496254 1.0534512 11.848348 1.8452835e-38
-3.049222 1.0374535 11.848949 2.029385e-38
-3.0487709 1.0213733 11.849546 2.1764652e-38
-3.0482256 1.0052699 11.850026 1.7531969e-38
-3.0478482 0.98917681 11.850762 1.7900387e-38
-3.0477154 0.97314024 11.851867 1.9558089e-38
-3.0376353 1.1343524 11.852988 1.789967e-38
-3.0373397 1.1183243 11.853726 1.789967e-38
-3.036948 1.1022977 11.854352 1.771564e-38
-3.0366392 1.0862689 11.855172 1.7992222e-38
-3.0364008 1.0702375 11.856107 1.8176611e-38
-3.0360157 1.0541236 11.85686 1.8821253e-38
-3.0356064 1.0381093 11.857477 2.0569715e-38
-3.0352595 1.0220451 11.858241 2.1856488e-38
-3.0346775 1.0059336 11.858649 1.7347939e-38
-3.0343602 0.98985159 11.859488 1.7808551e-38
-3.0342906 0.97383273 11.860678 2.0017984e-38
-3.0238564 1.1350248 11.861268 1.789967e-38
-3.0236626 1.1190058 11.862123 1.8084417e-38
-3.0233891 1.102994 11.862911 1.7808193e-38
-3.0231142 1.0869724 11.863783 1.8545388e-38
-3.0228331 1.0709355 11.864645 1.9005642e-38
-3.0224669 1.0548192 11.865458 1.8637582e-38
-3.0220897 1.0388193 11.866114 1.9833955e-38
-3.0217524 1.0227579 11.866895 2.1488787e-38
-3.0211782 1.0066475 11.867314 1.7347939e-38
-3.0207763 0.99054581 11.868026 1.7531969e-38
-3.0207767 0.97453195 11.869335 1.937406e-38
-3.0101285 1.1357062 11.869596 1.7899311e-38
-3.0099802 1.1196886 11.870496 1.7991864e-38
-3.009831 1.1036924 11.871447 1.7807834e-38
-3.0096567 1.0876859 11.872488 1.8268805e-38
-3.0092859 1.0716392 11.873219 1.8637582e-38
-3.008903 1.0555314 11.874011 1.8545388e-38
-3.0085752 1.0395358 11.874747 1.9833955e-38
-3.0082238 1.0234734 11.875504 2.1764652e-38
-3.0075679 1.0073509 11.875798 1.7809269e-38
-3.0071595 0.99125296 11.876497 1.7716716e-38
-3.0072532 0.97525895 11.877949 1.937406e-38
-5.1898255 0.94772637 13.006648 1.2639138e-38
-5.1901093 0.91628772 13.013674 1.2735303e-38
-5.1898727 0.88491154 13.021006 1.2271077e-38
-5.172894 0.97295517 12.972753 1.2454382e-38
-5.1730518 0.94156569 12.979851 1.2639138e-38
-5.1734262 0.91012186 12.986829 1.2735303e-38
-5.17342 0.87872183 12.994023 1.2270352e-38
-5.1727962 0.84740299 13.001586 2.2038723e-38
-5.1556668 0.99822086 12.939033 2.0840549e-38
-5.1562409 0.96680808 12.945889 1.2456187e-38
-5.1564322 0.93541163 12.952969 1.2734935e-38
-5.1567893 0.90396345 12.959953 1.2735658e-38
-5.1567378 0.87256581 12.967175 1.2270352e-38
-5.1568685 0.84114456 12.97429 2.2038723e-38
-5.1394906 0.99203336 12.911889 1.98246e-38
-5.1398549 0.96061713 12.918869 1.2456187e-38
-5.1400104 0.92922205 12.925968 1.2734935e-38
-5.1402073 0.89778912 12.933048 1.2271435e-38
-5.1408377 0.86630654 12.939864 1.2270352e-38
-5.1415143 0.83479965 12.946647 2.2038723e-38
-5.1410952 0.80344284 12.954087 2.2130917e-38
-5.1235871 0.95439523 12.89178 1.2456187e-38
-5.1235394 0.92302179 12.898998 1.2734935e-38
-5.1238775 0.89157778 12.905994 1.2271435e-38
-5.1243658 0.86011356 12.912895 1.3565057e-38
-5.1247268 0.82865489 12.919872 2.1671381e-38
-5.1250949 0.79718196 12.926842 2.2130917e-38
-5.1076636 0.94818568 12.864483 1.1720067e-38
-5.1068177 0.91687721 12.872173 1.2732774e-38
-5.1073947 0.88539964 12.879023 1.2087043e-38
-5.1074476 0.85398489 12.886186 1.3565057e-38
-5.1083694 0.82243758 12.892831 2.1671381e-38
-5.0914969 0.91055971 12.844525 1.2456906e-38
-5.0907435 0.87923372 12.852161 1.2087043e-38
-5.0908971 0.84780586 12.859261 1.3565057e-38
-4.061162 0.8348403 11.351858 1.8453194e-38
-4.0607905 0.81681526 11.353951 1.8083338e-38
-4.0603971 0.7989403 11.356819 1.8913806e-38
-4.0603142 0.78150761 11.361362 1.9006359e-38
-4.0604105 0.76440346 11.367203 1.92833e-38
-4.060545 0.74720359 11.372541 1.9283659e-38
-4.0607877 0.72982669 11.376975 1.9283659e-38
-4.0612259 0.71239245 11.381161 1.9283659e-38
-4.0617352 0.69488174 11.385167 1.9467689e-38
-4.0621448 0.67719942 11.388762 1.9467689e-38
-4.062674 0.6594677 11.392342 1.9559524e-38
-4.0430737 0.83471054 11.351107 1.8637582e-38
-4.0426946 0.8166666 11.353155 1.8452833e-38
-4.0423975 0.79886788 11.356215 1.9098194e-38
-4.0423875 0.78148228 11.361016 1.9191106e-38
-4.0425282 0.76434934 11.366742 1.9191465e-38
-4.0426278 0.74708378 11.371782 1.9283659e-38
-4.0427761 0.72957778 11.375791 1.9375495e-38
-4.0431323 0.71208239 11.379763 1.9467689e-38
-4.0435214 0.69456226 11.383838 1.9559883e-38
-4.0438452 0.67667115 11.386727 1.9835748e-38
-4.0442309 0.6587916 11.38993 1.9743554e-38
-4.0253596 0.8350482 11.351824 1.8545388e-38
-4.0250015 0.81714672 11.354639 1.8268445e-38
-4.0247545 0.79935515 11.357753 1.8914165e-38
-4.0247397 0.78193098 11.362392 1.9191106e-38
-4.0248766 0.76465374 11.367481 1.9375495e-38
-4.0249591 0.74732423 11.37237 1.9467689e-38
-4.0250478 0.72982204 11.37645 1.9559524e-38
-4.0252862 0.71224952 11.380208 1.9651719e-38
-4.0255661 0.69450802 11.383537 1.9743554e-38
-4.0257916 0.6766789 11.386764 1.9743554e-38
-4.0260749 0.65876752 11.389968 1.9927584e-38
-4.0075226 0.83554119 11.353451 1.8453194e-38
-4.0072274 0.81772262 11.356713 1.8175892e-38
-4.0070124 0.79998243 11.360066 1.8913806e-38
-4.0069737 0.78247315 11.364286 1.9191106e-38
-4.0070944 0.76519459 11.369409 1.9375495e-38
-4.0071521 0.74780989 11.374094 1.9467689e-38
-4.0071764 0.73022228 11.377831 1.9559524e-38
-4.0073428 0.71267235 11.381713 1.9651719e-38
-4.0074697 0.69488311 11.384836 1.9559883e-38
-4.0076122 0.67690158 11.387553 1.9927584e-38
-4.007813 0.65890819 11.390573 2.0019778e-38
-3.9896638 0.83611488 11.355617 1.8637582e-38
-3.9893827 0.81827998 11.358781 1.8545028e-38
-3.9892621 0.80069381 11.362923 1.8729776e-38
-3.9892495 0.78324342 11.367415 1.9191106e-38
-3.9893503 0.76594579 11.372437 1.92833e-38
-3.9893131 0.7484085 11.376439 1.9282942e-38
-3.9893308 0.73090971 11.380555 1.9283659e-38
-3.9893858 0.71328551 11.38413 1.9559883e-38
-3.9894345 0.69556588 11.387476 1.9651719e-38
-3.9894328 0.67762542 11.390232 1.9927584e-38
-3.9896047 0.65970093 11.393744 2.0019778e-38
-3.9718523 0.83677739 11.358644 1.8729776e-38
-3.9716439 0.81900597 11.362102 1.8637582e-38
-3.9714718 0.80130857 11.36565 1.8914165e-38
-3.9714618 0.78388274 11.370211 1.9191106e-38
-3.971518 0.76654232 11.374975 1.9375495e-38
-3.971523 0.74910986 11.379418 1.9559524e-38
-3.9715664 0.7317217 11.383948 1.9835748e-38
-3.9715409 0.71414179 11.387646 1.9651719e-38
-3.9714639 0.69642067 11.39092 1.9651719e-38
-3.9713824 0.67856646 11.39401 1.9835748e-38
-3.9713545 0.66073447 11.39733 2.0019778e-38
-3.9542572 0.83764035 11.362293 1.8729776e-38
-3.9540601 0.81986928 11.365705 1.8729776e-38
-3.9538836 0.80217129 11.369258 1.8914523e-38
-3.9537914 0.78462356 11.373155 1.9191106e-38
-3.9538224 0.76724315 11.377762 1.9375495e-38
-3.953897 0.74992681 11.382707 1.9467689e-38
-3.953903 0.73253167 11.387192 1.9743554e-38
-3.953846 0.71502793 11.391169 1.9743554e-38
-3.9537394 0.69739473 11.394837 1.9743913e-38
-3.9536242 0.67969066 11.398351 1.9927584e-38
-3.9535055 0.66186744 11.401656 2.0019778e-38
-3.9367802 0.83854991 11.366243 1.8914523e-38
-3.9365561 0.82074386 11.369394 1.8729776e-38
-3.9363172 0.80299258 11.372605 1.8821971e-38
-3.9362574 0.78550345 11.376759 1.9098912e-38
-3.9362154 0.76805162 11.381074 1.9375495e-38
-3.9363494 0.75077474 11.38622 1.9467689e-38
-3.9364309 0.73349011 11.3912 1.9651719e-38
-3.936337 0.716061 11.395336 1.9743913e-38
-3.9361837 0.69850194 11.399202 1.9743913e-38
-3.9359818 0.68083119 11.40282 1.9927584e-38
-3.93578 0.66311139 11.406357 2.0019778e-38
-3.9196348 0.83974713 11.371516 1.8729776e-38
-3.9193642 0.82186723 11.374303 1.8821612e-38
-3.9190829 0.80406934 11.377284 1.9006e-38
-3.918874 0.78645545 11.380736 1.9190747e-38
-3.9188488 0.76902199 11.38519 1.9375495e-38
-3.9189885 0.75174034 11.390255 1.9559524e-38
-3.9190409 0.73445141 11.395106 1.9467689e-38
-3.9189353 0.71710974 11.399588 1.9651719e-38
-3.9187417 0.69964081 11.403703 1.9743913e-38
-3.9185259 0.68207544 11.407648 2.0019778e-38
-3.9182384 0.66437238 11.411272 2.0111614e-38
-3.9030273 0.84135866 11.378654 1.8729776e-38
-3.9026985 0.82343572 11.381091 1.8821612e-38
-3.9023068 0.80551505 11.383499 1.9006e-38
-3.9019723 0.78786403 11.386682 1.9190747e-38
-3.9019017 0.77045226 11.391026 1.9098912e-38
-3.9019895 0.75313836 11.395876 1.9559524e-38
-3.9019942 0.73579329 11.400526 1.9559883e-38
-3.9017024 0.71837974 11.404622 1.9835748e-38
-3.9014668 0.70098156 11.408966 1.9927943e-38
-3.9012058 0.68346006 11.413049 2.0019778e-38
-3.9009585 0.66588974 11.417175 2.0019778e-38
-3.8866811 0.84288353 11.385656 1.8729776e-38
-3.8861613 0.82482594 11.387407 1.8637582e-38
-3.8857467 0.806871 11.389616 1.8821971e-38
-3.8854635 0.78934455 11.393267 1.9098912e-38
-3.885283 0.77189392 11.397348 1.946733e-38
-3.8853297 0.75462794 11.402232 1.9559524e-38
-3.8853099 0.737279 11.406808 1.9651719e-38
-3.884922 0.71984613 11.410704 1.9743913e-38
-3.8845325 0.70241594 11.414768 1.9927943e-38
-3.8842404 0.68493927 11.4189 1.9927943e-38
-3.8839524 0.66744179 11.423156 2.0019778e-38
-3.9559181 0.83426446 11.362677 1.8729776e-38
-3.9554267 0.8155098 11.366136 1.8729776e-38
-3.9551811 0.79687005 11.370068 1.9191106e-38
-3.9554276 0.77839166 11.374657 1.9282942e-38
-3.9558599 0.75998628 11.379573 1.9375495e-38
-3.956145 0.74153328 11.384266 1.9467689e-38
-3.9563384 0.72306132 11.388798 1.9743554e-38
-3.9565032 0.70434487 11.392413 1.9743913e-38
-3.9565334 0.68561381 11.39596 1.9927584e-38
-3.9563363 0.66675276 11.398882 2.0019778e-38
-3.9561441 0.64799553 11.40214 2.0111614e-38
-3.9374204 0.8351177 11.366753 1.8914523e-38
-3.9370072 0.81635517 11.3702 1.8729776e-38
-3.9367824 0.79766989 11.373915 1.9098912e-38
-3.9369721 0.77913982 11.378325 1.9375136e-38
-3.9374111 0.76074791 11.383414 1.9375495e-38
-3.9377391 0.74239832 11.388586 1.9467689e-38
-3.9379766 0.7239213 11.39317 1.9651719e-38
-3.9381723 0.70528096 11.397071 1.9743913e-38
-3.9382412 0.68662196 11.400907 1.9927584e-38
-3.9380195 0.66774786 11.403824 2.0019778e-38
-3.9379423 0.64912462 11.407607 2.0111614e-38
-3.9192936 0.836281 11.372397 1.8729776e-38
-3.918828 0.81742328 11.37538 1.8821612e-38
-3.9185607 0.7986505 11.378684 1.9190747e-38
-3.9186795 0.78005821 11.38283 1.9098912e-38
-3.9190757 0.76161253 11.387698 1.9375495e-38
-3.9194257 0.74326253 11.39295 1.9559524e-38
-3.9197094 0.72480768 11.397703 1.9467689e-38
-3.9199724 0.70625597 11.402065 1.9743913e-38
-3.9200339 0.68759203 11.40592 2.0019778e-38
-3.9199219 0.66884762 11.409344 2.0111614e-38
-3.919929 0.65029329 11.413439 2.0111614e-38
-3.9016697 0.83786589 11.380309 1.8729776e-38
-3.9010167 0.81884372 11.382388 1.8821612e-38
-3.9007146 0.80003351 11.385477 1.9190747e-38
-3.9007249 0.78135556 11.389174 1.9098912e-38
-3.9011002 0.76288569 11.393916 1.9375495e-38
-3.9014194 0.74448693 11.398944 1.9559524e-38
-3.9017296 0.72603935 11.403734 1.9743913e-38
-3.9019146 0.7074253 11.40784 1.9835748e-38
-3.9019923 0.68878257 11.411791 2.0019778e-38
-3.9019363 0.67009097 11.415443 2.0019778e-38
-3.9020708 0.65165102 11.419952 2.0111614e-38
-3.884027 0.839378 11.38789 1.8729776e-38
-3.883363 0.82034707 11.389838 1.8637582e-38
-3.8829622 0.80145991 11.392488 1.8913806e-38
-3.8830128 0.78282952 11.39638 1.946733e-38
-3.883393 0.76437569 11.401155 1.9467689e-38
-3.8836615 0.7459265 11.405916 1.9559524e-38
-3.8838298 0.72736895 11.410142 1.9651719e-38
-3.8839459 0.70873469 11.414124 1.9743913e-38
-3.8839972 0.69008398 11.418015 1.9927943e-38
-3.8840275 0.67148072 11.421961 2.0019778e-38
-3.884234 0.65309739 11.426582 2.0203808e-38
-3.8666236 0.84094948 11.395773 1.8914165e-38
-3.8659146 0.82189494 11.397555 1.8821612e-38
-3.8655617 0.80305308 11.400366 1.9006359e-38
-3.8655455 0.78438723 11.404069 1.946733e-38
-3.8659499 0.76597267 11.40896 1.9467689e-38
-3.8661821 0.74749243 11.413486 1.9559883e-38
-3.8662517 0.72889096 11.417451 1.9651719e-38
-3.8661976 0.71016109 11.420932 1.9743913e-38
-3.8661251 0.69143236 11.424453 1.9927943e-38
-3.866164 0.67283249 11.428393 2.0019778e-38
-3.8663433 0.65438515 11.432814 2.0295643e-38
-3.8493333 0.84251046 11.40368 1.9006359e-38
-3.8485963 0.82343066 11.405364 1.8821971e-38
-3.8482287 0.80459636 11.408128 1.9098194e-38
-3.8483198 0.78602737 11.412192 1.9559524e-38
-3.8485286 0.76753139 11.416565 1.9651719e-38
-3.8487818 0.74906009 11.421082 1.9743554e-38
-3.848789 0.73044127 11.424823 1.9743913e-38
-3.8486013 0.71166289 11.42804 1.9835748e-38
-3.8484664 0.6929338 11.431425 2.0019778e-38
-3.8484147 0.67426091 11.435058 2.0019778e-38
-3.8486104 0.65581459 11.439421 2.0019778e-38
-3.8320026 0.8439588 11.411192 1.9098553e-38
-3.8313942 0.8249771 11.413217 1.8914165e-38
-3.8311272 0.80617487 11.416206 1.919003e-38
-3.831141 0.78759587 11.420068 1.9651719e-38
-3.8313127 0.76911151 11.424387 1.983539e-38
-3.8314927 0.75062317 11.428636 1.9927584e-38
-3.831475 0.73201996 11.43235 1.9743913e-38
-3.8311429 0.71319163 11.435311 1.9927584e-38
-3.8309395 0.69443965 11.438532 2.0111614e-38
-3.8308952 0.67581367 11.442149 2.0203449e-38
-3.8311746 0.65742022 11.446661 2.0111614e-38
-3.814723 0.84542823 11.418657 1.9282942e-38
-3.8141015 0.82644641 11.420656 1.8914165e-38
-3.813751 0.80763704 11.423434 1.9098194e-38
-3.8137195 0.78904146 11.427181 1.965136e-38
-3.8138905 0.77058434 11.431527 1.9743554e-38
-3.8140824 0.75209379 11.435678 1.9835748e-38
-3.8140299 0.73349541 11.439288 1.9743913e-38
-3.8137369 0.71472174 11.442459 1.9927584e-38
-3.8135746 0.6960156 11.445888 2.0111614e-38
-3.8136308 0.67746389 11.449696 2.0203449e-38
-3.8141208 0.65919793 11.454717 2.0203449e-38
-3.79772 0.84692937 11.426478 1.9375136e-38
-3.796984 0.82792258 11.42825 1.9006718e-38
-3.7965693 0.80910593 11.430844 1.9006359e-38
-3.7965381 0.79057294 11.434652 1.9559524e-38
-3.7965741 0.77205336 11.438714 1.9559524e-38
-3.796854 0.75361019 11.443014 1.9651719e-38
-3.7967227 0.73495585 11.446451 1.9835748e-38
-3.7964566 0.71625543 11.449694 1.9927584e-38
-3.7962725 0.69757587 11.453089 1.9927584e-38
-3.7964168 0.67908114 11.457201 2.0295285e-38
-3.7971363 0.66099811 11.462544 2.038712e-38
-3.7808523 0.84847021 11.434414 1.9282942e-38
-3.780061 0.82949048 11.436045 1.9006718e-38
-3.7795756 0.81067067 11.438659 1.9190389e-38
-3.779531 0.79214764 11.442433 1.9651001e-38
-3.7795599 0.77362037 11.446474 1.9559524e-38
-3.7798042 0.75516176 11.450696 1.9743554e-38
-3.779722 0.73655772 11.454257 2.0019419e-38
-3.7795045 0.71790701 11.457772 2.0294926e-38
-3.7792368 0.69920141 11.460939 2.038712e-38
-3.7794929 0.68079531 11.46522 2.0570791e-38
-3.7802925 0.66278809 11.47049 2.0570791e-38
-4.7298584 1.3595623 12.269347 9.3200893e-39
-4.7313728 1.3397039 12.264058 9.3200907e-39
-4.732058 1.3197763 12.259243 9.3200935e-39
-4.7324781 1.2998555 12.254582 9.3204551e-39
-4.7197657 1.3633536 12.251887 9.4090129e-39
-4.7203798 1.3433824 12.247153 9.3200907e-39
-4.7208261 1.3234245 12.24249 9.3200935e-39
-4.7209625 1.3034695 12.238011 9.3204551e-39
-4.7212834 1.2834126 12.233481 9.4126507e-39
-4.7213507 1.2633235 12.229105 9.3204523e-39
-4.7087054 1.3670439 12.234997 9.3182634e-39
-4.7090225 1.347044 12.230453 9.4090129e-39
-4.7096028 1.327101 12.225718 9.3200935e-39
-4.7097902 1.3071237 12.221223 9.3204551e-39
-4.7101016 1.2871011 12.216682 9.4126507e-39
-4.7103052 1.2670517 12.21221 9.3204523e-39
-4.7106075 1.2469893 12.207687 9.413008e-39
-4.6983557 1.350775 12.213334 9.4090129e-39
-4.6984582 1.3307668 12.208905 9.2242573e-39
-4.6988401 1.310796 12.2043 9.2231685e-39
-4.6991777 1.2908055 12.199727 9.4126507e-39
-4.6996808 1.2708044 12.195062 9.3204523e-39
-4.6999702 1.2507366 12.190554 9.413008e-39
-4.6882448 1.3145285 12.18714 9.2231685e-39
-4.6889191 1.2945164 12.182383 9.1306086e-39
-4.6892996 1.2744608 12.177811 8.9462117e-39
-4.6896167 1.254384 12.173287 8.7614589e-39
-4.2756691 0.91830838 11.496888 1.3749101e-38
-4.2770557 0.9005816 11.499326 1.4208635e-38
-4.2773566 0.88320303 11.502956 1.3840935e-38
-4.2785511 0.86563462 11.505606 1.3841296e-38
-4.278614 0.84838593 11.509547 1.3749459e-38
-4.2784624 0.83122069 11.513613 1.3379592e-38
-4.2773075 0.81435782 11.519172 1.3287399e-38
-4.2758255 0.79755729 11.525057 1.3564345e-38
-4.2743201 0.78074527 11.531135 1.3748739e-38
-4.2656698 0.91482061 11.481557 1.3748379e-38
-4.2670579 0.89707923 11.484211 1.4208635e-38
-4.26793 0.87952489 11.487399 1.3840935e-38
-4.268899 0.86197954 11.490407 1.3748379e-38
-4.2688408 0.84474462 11.49453 1.3472151e-38
-4.2682996 0.82767135 11.499329 1.3287036e-38
-4.2660532 0.81110531 11.505978 1.3287399e-38
-4.2645326 0.79429334 11.511871 1.310373e-38
-4.262866 0.77750492 11.518017 1.3104091e-38
-4.2624125 0.7604475 11.522631 1.3196287e-38
-4.2540765 0.91163439 11.467734 1.4851843e-38
-4.2551661 0.89397752 11.471032 1.374874e-38
-4.2555881 0.8765552 11.474909 1.3840936e-38
-4.2569728 0.85889059 11.477474 1.3656183e-38
-4.2574158 0.84150708 11.481146 1.3379596e-38
-4.2568622 0.82443833 11.485985 1.3010449e-38
-4.2542076 0.80795848 11.493262 1.3011174e-38
-4.2518444 0.79141045 11.500193 1.310373e-38
-4.2509537 0.77433318 11.505291 1.3196287e-38
-4.2503014 0.75738639 11.510269 1.3288481e-38
-4.240612 0.90888131 11.456283 1.4851843e-38
-4.2420454 0.89116842 11.459341 1.374874e-38
-4.2432775 0.87352979 11.462129 1.3840936e-38
-4.2442269 0.85599208 11.465407 1.3656183e-38
-4.245028 0.8385011 11.468657 1.3379596e-38
-4.2445912 0.82138532 11.473434 1.3010449e-38
-4.2422299 0.80480546 11.480412 1.3011174e-38
-4.2401371 0.78813213 11.48702 1.3104093e-38
-4.2388487 0.77116853 11.492501 1.3104091e-38
-4.2384496 0.75414759 11.497371 1.3196285e-38
-4.238246 0.73687685 11.501651 1.338068e-38
-4.2274871 0.9060114 11.443962 1.4668534e-38
-4.2285266 0.88845944 11.448012 1.374874e-38
-4.2298937 0.87077928 11.450608 1.3656545e-38
-4.2312589 0.85311675 11.453333 1.3563988e-38
-4.2325444 0.83545554 11.455915 1.3287759e-38
-4.2318959 0.81841499 11.461185 1.3010812e-38
-4.2295499 0.80182844 11.468228 1.3103731e-38
-4.2276564 0.78504062 11.474411 1.3104093e-38
-4.2259698 0.76822031 11.480509 1.3196288e-38
-4.2257676 0.75113714 11.485229 1.3472514e-38
-4.225503 0.73385942 11.489536 1.3657265e-38
-4.2125649 0.90364581 11.434149 1.3932772e-38
-4.2139883 0.88603389 11.437915 1.4024607e-38
-4.2158308 0.86818689 11.439663 1.3656183e-38
-4.218235 0.8501479 11.44061 1.3563988e-38
-4.2190642 0.83265942 11.444184 1.2917164e-38
-4.2190447 0.81540751 11.448623 1.3010812e-38
-4.2170157 0.79867548 11.455134 1.3288121e-38
-4.2143536 0.7821514 11.462515 1.3380319e-38
-4.2125716 0.76537538 11.468838 1.3196288e-38
-4.2126546 0.74817312 11.473278 1.3472514e-38
-4.2123122 0.73086524 11.477502 1.3657265e-38
-4.1982913 0.90111971 11.423838 1.3932772e-38
-4.20013 0.88341153 11.427019 1.4024607e-38
-4.2019119 0.86557072 11.42879 1.3656183e-38
-4.2046032 0.84739619 11.429061 1.3287762e-38
-4.2059832 0.82972383 11.431848 1.3009362e-38
-4.2068615 0.81210732 11.434723 1.3287399e-38
-4.2041135 0.79567981 11.442649 1.3288121e-38
-4.2020497 0.77883399 11.448736 1.3656906e-38
-4.198761 0.76262891 11.457489 1.3657266e-38
-4.1998744 0.74500376 11.460341 1.3657627e-38
-4.1994467 0.72774959 11.464806 1.3657264e-38
-4.1840672 0.89861572 11.413712 1.3840213e-38
-4.186254 0.8807705 11.415962 1.3933127e-38
-4.1880798 0.86286891 11.417373 1.3840574e-38
-4.1903114 0.84484559 11.41841 1.3564348e-38
-4.1921453 0.8269729 11.420244 1.3378509e-38
-4.1930294 0.8093397 11.423082 1.3563986e-38
-4.1912336 0.79247069 11.429119 1.3564349e-38
-4.1880946 0.77614224 11.437522 1.3656906e-38
-4.1857042 0.75947911 11.444432 1.4210081e-38
-4.186677 0.7419095 11.447597 1.3841299e-38
-4.1863651 0.72458827 11.451796 1.3842381e-38
-4.1726208 0.8778854 11.403369 1.3933496e-38
-4.1743436 0.85999739 11.404932 1.4209721e-38
-4.1764827 0.84194422 11.405879 1.3564348e-38
-4.1781063 0.82415962 11.408232 1.3378509e-38
-4.1784158 0.80683136 11.412545 1.3563986e-38
-4.1764483 0.7900418 11.418964 1.402533e-38
-4.1742501 0.7731753 11.424997 1.4117887e-38
-4.1716199 0.75658745 11.432296 1.4210081e-38
-4.172441 0.73910856 11.435957 1.3841299e-38
-4.172389 0.72165352 11.439721 1.3842381e-38
-4.1585908 0.87477797 11.38911 1.4210081e-38
-4.1602387 0.85688335 11.390878 1.4209721e-38
-4.1620617 0.83901536 11.392883 1.402533e-38
-4.1635075 0.8213464 11.396024 1.3932776e-38
-4.1633434 0.80436403 11.402118 1.402533e-38
-4.1611648 0.78765535 11.408931 1.402533e-38
-4.1587048 0.77087998 11.415404 1.4394836e-38
-4.1560898 0.75424355 11.42257 1.448703e-38
-4.1575394 0.73645622 11.424946 1.4117884e-38
-4.15731 0.71916598 11.429379 1.430372e-38
-4.1467667 0.85355765 11.375964 1.4947647e-38
-4.148273 0.8358652 11.379085 1.4947288e-38
-4.1496568 0.8182236 11.382516 1.4671062e-38
-4.1497173 0.80124992 11.388817 1.4026415e-38
-4.1469159 0.78507632 11.398213 1.4210083e-38
-4.1449285 0.76805693 11.40359 1.4394836e-38
-4.1428342 0.75093502 11.408661 1.5318225e-38
-4.1438317 0.73331553 11.411819 1.4395557e-38
-4.1442361 0.71543133 11.414038 1.4488472e-38
-3.0140326 1.1451377 11.866431 1.7622727e-38
-3.0138688 1.1269524 11.867716 1.7899311e-38
-3.0134697 1.108736 11.868681 1.7991864e-38
-3.0133388 1.0905619 11.870069 1.8268805e-38
-3.0128515 1.072319 11.870913 1.8637582e-38
-3.0123589 1.0539594 11.871933 1.8545388e-38
-3.0119779 1.035821 11.872738 1.9833955e-38
-3.0114727 1.0175954 11.873474 2.1764652e-38
-3.010726 0.9992736 11.873919 1.7809269e-38
-3.0105228 0.98101842 11.875234 1.7716716e-38
-3.010752 0.96286207 11.877177 1.937406e-38
-2.9985332 1.1459532 11.875952 1.7715281e-38
-2.998384 1.1277684 11.877255 1.789967e-38
-2.9980001 1.1095572 11.878236 1.7991864e-38
-2.9978969 1.0913922 11.879686 1.8084417e-38
-2.9975286 1.073174 11.880723 1.8269164e-38
-2.9969766 1.054806 11.88173 1.8453552e-38
-2.9965675 1.0366759 11.882429 1.9833955e-38
-2.9959207 1.0184247 11.882952 2.2040159e-38
-2.9952044 1.0001129 11.883446 1.7901104e-38
-2.9950414 0.98186767 11.884825 1.7624522e-38
-2.9952865 0.96371448 11.886792 1.9558089e-38
-2.9831696 1.1467855 11.88572 1.7715281e-38
-2.9830506 1.1286057 11.887065 1.7807475e-38
-2.9827209 1.1104062 11.888124 1.7900028e-38
-2.9824598 1.0922216 11.889336 1.8176611e-38
-2.9821773 1.0740222 11.890503 1.8361358e-38
-2.9816427 1.0556661 11.891603 1.8821971e-38
-2.9812694 1.0375423 11.892311 1.9833955e-38
-2.9803426 1.0192399 11.892406 2.2040159e-38
-2.9796402 1.0009339 11.892925 1.8085134e-38
-2.9795794 0.9827103 11.894466 1.7900746e-38
-2.9798615 0.96456116 11.896494 2.0017984e-38
-2.9677958 1.1476195 11.895508 1.7715281e-38
-2.9676073 1.1294308 11.896728 1.7807834e-38
-2.9673231 1.1112382 11.897859 1.8084417e-38
-2.9672067 1.0930728 11.899251 1.8176611e-38
-2.9668975 1.0748749 11.900388 1.8453552e-38
-2.9662418 1.056505 11.901381 1.8729776e-38
-2.9659297 1.0383888 11.902122 1.9466254e-38
-2.9648824 1.0200702 11.902051 2.2040159e-38
-2.9641581 1.0017608 11.902542 1.8177328e-38
-2.964128 0.98354441 11.904116 1.7901104e-38
-2.9644887 0.96540737 11.906268 2.0202014e-38
-2.9524894 1.1484588 11.905365 1.7807475e-38
-2.952189 1.1302577 11.90644 1.789967e-38
-2.9518545 1.1120535 11.907471 1.8268805e-38
-2.9518795 1.0939097 11.909063 1.8453552e-38
-2.9516399 1.0757316 11.910304 1.8453552e-38
-2.9510849 1.0573967 11.91151 1.8545747e-38
-2.9507079 1.0392661 11.912112 1.919003e-38
-2.9496808 1.0209488 11.91208 2.1948323e-38
-2.9487679 1.0026056 11.912296 1.8177687e-38
-2.9488473 0.98440343 11.914049 1.7716716e-38
-2.9492371 0.96627444 11.916248 1.9742478e-38
-2.9368396 1.1492547 11.914685 1.7807834e-38
-2.9365437 1.1310518 11.915777 1.7900028e-38
-2.9362168 1.112843 11.91676 1.8268805e-38
-2.936548 1.0947391 11.918813 1.8545388e-38
-2.9364583 1.0765921 11.920275 1.8821971e-38
-2.9359682 1.0582925 11.921671 1.8914165e-38
-2.9355083 1.0401415 11.922123 1.9558089e-38
-2.9342346 1.0217881 11.921741 2.1948323e-38
-2.9334023 1.0034628 11.922069 1.8453911e-38
-2.9335659 0.98528093 11.923949 1.7901104e-38
-2.9340563 0.96717602 11.926287 1.9926149e-38
-2.9209361 1.1500225 11.923641 1.7807475e-38
-2.9206126 1.1318177 11.9247 1.7992222e-38
-2.9205406 1.1136369 11.926064 1.817697e-38
-2.9209368 1.0955364 11.928205 1.8453194e-38
-2.9210613 1.0774133 11.929993 1.8821612e-38
-2.920701 1.0591564 11.931694 1.9097836e-38
-2.9202821 1.0409951 11.932137 1.9650284e-38
-2.9192092 1.0226868 11.932034 2.1948323e-38
-2.918268 1.0043491 11.932215 1.8822329e-38
-2.9184203 0.98616982 11.934072 1.7993299e-38
-2.9189231 0.96808249 11.936404 2.010982e-38
-2.9049551 1.150797 11.932537 1.7807475e-38
-2.9047272 1.1326003 11.933739 1.7900028e-38
-2.9048126 1.1144335 11.935347 1.8084775e-38
-2.9053986 1.0963451 11.937708 1.8269164e-38
-2.905704 1.0782503 11.939816 1.8729776e-38
-2.9054596 1.0600272 11.941641 1.8730135e-38
-2.9052694 1.0418935 11.942439 1.8913806e-38
-2.9044065 1.0236274 11.942648 2.1672458e-38
-2.9033642 1.00528 11.942676 1.8730135e-38
-2.9033308 0.98706985 11.944274 1.7901104e-38
-2.9038706 0.96898639 11.946664 1.9098553e-38
-2.8889172 1.1515743 11.941386 1.789967e-38
-2.8887889 1.1333836 11.942732 1.7991864e-38
-2.8890958 1.1152408 11.944682 1.8269164e-38
-2.8899746 1.0971792 11.947465 1.8361358e-38
-2.8906996 1.079136 11.950177 1.8729776e-38
-2.8906155 1.060954 11.95218 1.8729776e-38
-2.8903935 1.0428064 11.952938 1.8913806e-38
-2.8894639 1.0245355 11.953071 2.1672458e-38
-2.8885052 1.0062045 11.953228 1.86383e-38
-2.8884428 0.98799509 11.954784 1.7716716e-38
-2.888922 0.96990496 11.957086 1.9374777e-38
-2.8729103 1.1523763 11.950348 1.7991864e-38
-2.8728664 1.1341871 11.951818 1.8084417e-38
-2.8732131 1.1160407 11.953831 1.8545747e-38
-2.8746099 1.098029 11.957327 1.8545747e-38
-2.8755639 1.0800059 11.960348 1.8637582e-38
-2.8755631 1.0618445 11.962507 1.8729776e-38
-2.8754354 1.0436932 11.963356 1.9098194e-38
-2.8745074 1.0254183 11.963462 2.1396952e-38
-2.8735127 1.007085 11.963665 1.8822329e-38
-2.8734086 0.98886305 11.965163 1.7901104e-38
-2.874002 0.97079879 11.967618 1.9374777e-38
-2.8567977 1.1531599 11.959118 1.7807475e-38
-2.8568573 1.134976 11.960746 1.8361358e-38
-2.8575346 1.1168568 11.963219 1.8453552e-38
-2.8589995 1.0988482 11.966838 1.8361358e-38
-2.8603277 1.080864 11.970356 1.8453552e-38
-2.8605425 1.0627394 11.972826 1.8821971e-38
-2.8606532 1.0446115 11.974013 1.9190389e-38
-2.8597877 1.0263526 11.974178 2.1947965e-38
-2.8587151 1.0080147 11.974303 1.9282583e-38
-2.8585234 0.98978114 11.975703 1.8269881e-38
-2.859066 0.97171056 11.978064 1.9466613e-38
-3.8930364 0.82460558 11.385268 1.8637582e-38
-3.8921397 0.80758351 11.387668 1.8821971e-38
-3.8918478 0.79064107 11.390529 1.9098912e-38
-3.8923061 0.77377504 11.394014 1.946733e-38
-3.893328 0.75705087 11.39845 1.9375495e-38
-3.8939977 0.74029666 11.40264 1.9467689e-38
-3.8942688 0.72350746 11.406458 1.9743913e-38
-3.8944864 0.70673954 11.410285 1.9927943e-38
-3.8946433 0.68992609 11.413887 2.0019778e-38
-3.8947341 0.67314416 11.417492 2.0019778e-38
-3.8947477 0.65650129 11.421293 2.0111614e-38
-3.8774116 0.82593113 11.392443 1.8637582e-38
-3.8765543 0.80889642 11.394737 1.8913806e-38
-3.8762369 0.79190826 11.397398 1.9191106e-38
-3.8766775 0.77504379 11.400914 1.946733e-38
-3.8776207 0.75830656 11.405283 1.9467689e-38
-3.8782229 0.74153745 11.409392 1.9559524e-38
-3.878459 0.72465849 11.412877 1.9651719e-38
-3.8785894 0.70779818 11.416344 1.9927943e-38
-3.8787146 0.69093871 11.419806 1.9927943e-38
-3.8788037 0.67412764 11.423348 2.0019778e-38
-3.8788617 0.65746665 11.427172 2.0203808e-38
-3.8616643 0.8271845 11.39924 1.8821612e-38
-3.8609538 0.81020129 11.401836 1.9006359e-38
-3.8606703 0.79321861 11.404513 1.92833e-38
-3.8611069 0.7763747 11.408118 1.946733e-38
-3.8619468 0.75960904 11.412319 1.9467689e-38
-3.8624549 0.74279398 11.4162 1.9559883e-38
-3.8627279 0.72592348 11.419765 1.9651719e-38
-3.8627188 0.70895422 11.422776 1.9743913e-38
-3.8627455 0.69200522 11.425917 1.9927943e-38
-3.8628078 0.67515069 11.429329 2.0019778e-38
-3.8629034 0.65846968 11.433127 2.0019778e-38
-3.8460782 0.82853132 11.406531 1.8821971e-38
-3.8454018 0.81152534 11.409058 1.9098194e-38
-3.8452241 0.7946068 11.412029 1.9375495e-38
-3.8455911 0.77774358 11.415484 1.9559524e-38
-3.84635 0.76095164 11.419553 1.9651719e-38
-3.8467939 0.74408245 11.423212 1.9743554e-38
-3.846941 0.72715116 11.426483 1.9743913e-38
-3.8468764 0.71014386 11.429365 1.9835748e-38
-3.8468511 0.69315118 11.432357 1.9927943e-38
-3.8469164 0.67627901 11.43573 2.0019778e-38
-3.8470445 0.6595698 11.439486 2.0019778e-38
-3.8303218 0.82981759 11.413514 1.8914165e-38
-3.8296454 0.81275922 11.415827 1.919003e-38
-3.8295054 0.79585689 11.418861 1.9375495e-38
-3.8299301 0.77904952 11.422538 1.9743554e-38
-3.8306785 0.76230812 11.426754 1.983539e-38
-3.830965 0.74536806 11.430066 1.9927584e-38
-3.8310964 0.72843754 11.433319 1.9743913e-38
-3.8309331 0.71137667 11.435945 1.9927584e-38
-3.8309157 0.69440639 11.438981 2.0203449e-38
-3.8309259 0.67749268 11.442215 2.0203449e-38
-3.8311629 0.66085744 11.446181 2.0111614e-38
-3.8145928 0.83105683 11.420259 1.8914165e-38
-3.8139641 0.81397384 11.422428 1.9098194e-38
-3.8138406 0.79706055 11.425454 1.9375136e-38
-3.8142142 0.78025001 11.429121 1.965136e-38
-3.8148658 0.76350236 11.433294 1.9743554e-38
-3.8150599 0.74654782 11.436521 1.9835748e-38
-3.8152027 0.72963512 11.439871 1.9743913e-38
-3.8151007 0.71262717 11.442712 1.9927584e-38
-3.8150578 0.69565022 11.445712 2.0111614e-38
-3.8151658 0.6788193 11.449181 2.0203449e-38
-3.8155565 0.66228545 11.453454 2.0203449e-38
-3.7990444 0.8323887 11.427493 1.9006718e-38
-3.798363 0.81525117 11.429397 1.9006359e-38
-3.7982881 0.79835606 11.432458 1.9375136e-38
-3.7986422 0.78155643 11.436164 1.9559524e-38
-3.7991495 0.76475936 11.440119 1.9559524e-38
-3.7993422 0.74782938 11.443448 1.9651719e-38
-3.7992961 0.73082572 11.446371 1.9835748e-38
-3.799288 0.71387416 11.449472 1.9927584e-38
-3.7992101 0.69688052 11.452408 1.9927584e-38
-3.7994316 0.68011618 11.456105 2.0203449e-38
-3.8000336 0.66369927 11.460793 2.038712e-38
-3.7835259 0.83373559 11.434806 1.9006718e-38
-3.7829156 0.81661451 11.436761 1.9190389e-38
-3.7828345 0.7997098 11.43976 1.9651001e-38
-3.7831073 0.78288126 11.443327 1.9559524e-38
-3.7835526 0.76609004 11.447263 1.9559524e-38
-3.7837508 0.74918985 11.450696 1.9743554e-38
-3.7837451 0.73222917 11.453753 2.0019419e-38
-3.7836144 0.71522242 11.456564 2.0111255e-38
-3.7835875 0.69826978 11.45962 2.0203449e-38
-3.783895 0.68155122 11.463488 2.038712e-38
-3.7845125 0.66511905 11.46809 2.0478956e-38
-3.7680445 0.83508158 11.442116 1.9006359e-38
-3.7674999 0.81798452 11.444135 1.9190389e-38
-3.7674136 0.80106878 11.447102 1.9743195e-38
-3.7676656 0.78424621 11.450679 1.965136e-38
-3.7680783 0.76746082 11.454634 1.965136e-38
-3.7683115 0.75059706 11.458211 1.9743554e-38
-3.7684226 0.73371166 11.461562 2.0111255e-38
-3.7683272 0.71673584 11.464465 2.0294926e-38
-3.7683671 0.69983035 11.467672 2.038712e-38
-3.7686577 0.68309784 11.471448 2.0478956e-38
-3.7694664 0.66674662 11.476358 2.0570791e-38
-3.7527738 0.83649772 11.449862 1.9098553e-38
-3.7522037 0.8193773 11.451701 1.9282583e-38
-3.7521565 0.80248863 11.454701 1.9651001e-38
-3.7523391 0.78566051 11.458238 1.9559166e-38
-3.7527194 0.7688688 11.462212 1.9835031e-38
-3.7530429 0.75206065 11.466041 2.0019061e-38
-3.7532394 0.73522639 11.469589 2.0478597e-38
-3.7532279 0.71830273 11.47268 2.0570791e-38
-3.7532341 0.70138651 11.475809 2.038712e-38
-3.753588 0.68468553 11.479667 2.1305475e-38
-3.7544637 0.66833013 11.484607 2.1580981e-38
-3.7375987 0.83795869 11.457758 1.9190747e-38
-3.7371242 0.82085299 11.459709 1.9282583e-38
-3.7369955 0.80391985 11.462527 1.9742837e-38
-3.7371335 0.78709334 11.466043 1.965136e-38
-3.7375851 0.77035487 11.470246 1.9926866e-38
-3.7379739 0.75358945 11.474244 2.0294926e-38
-3.7382226 0.73678678 11.477901 2.0570432e-38
-3.7382047 0.71987182 11.480991 2.0570432e-38
-3.7382269 0.7029736 11.484157 2.2132353e-38
-3.7387035 0.68632543 11.488225 2.2499695e-38
-3.7396162 0.66997272 11.493111 2.2591531e-38
-3.781189 0.82029766 11.43736 1.9190389e-38
-3.7807109 0.80463201 11.439915 1.9651001e-38
-3.7806613 0.78909171 11.442991 1.9559524e-38
-3.7809756 0.77363151 11.446486 1.9559524e-38
-3.7813606 0.75810742 11.449862 1.9743554e-38
-3.7815602 0.74253517 11.452957 2.0019419e-38
-3.7815182 0.72687775 11.455734 2.0111255e-38
-3.7813189 0.71119034 11.458316 2.0203449e-38
-3.7812374 0.6955741 11.461207 2.038712e-38
-3.7814596 0.68019289 11.464929 2.038712e-38
-3.7820632 0.66510218 11.469531 2.0570791e-38
-3.7670898 0.82167983 11.444267 1.9190389e-38
-3.766633 0.80600649 11.446799 1.9743195e-38
-3.766556 0.79043889 11.449806 1.965136e-38
-3.7668362 0.77497762 11.453313 1.965136e-38
-3.7671907 0.75947279 11.456708 1.9743554e-38
-3.7674785 0.74393594 11.460083 2.0111255e-38
-3.7675035 0.72830862 11.462999 2.0294926e-38
-3.7672617 0.71261966 11.465539 2.038712e-38
-3.7672226 0.69702786 11.468531 2.0478956e-38
-3.76753 0.68167353 11.472408 2.0570791e-38
-3.7681727 0.66657734 11.477027 2.0846297e-38
-3.7529511 0.82304072 11.451184 1.9098553e-38
-3.7525876 0.8073926 11.453835 1.9651001e-38
-3.7525125 0.79184318 11.456836 1.9559166e-38
-3.7527485 0.77635163 11.460259 1.9835031e-38
-3.7531979 0.76088697 11.463912 1.9835031e-38
-3.7534597 0.74534446 11.467275 2.0019061e-38
-3.7535641 0.72975981 11.470381 2.0478597e-38
-3.7534184 0.7141214 11.473152 2.0570791e-38
-3.7533948 0.69853836 11.476172 2.038712e-38
-3.7537079 0.68318325 11.479991 2.1305475e-38
-3.754406 0.6680702 11.484616 2.1580981e-38
-3.7388783 0.82442772 11.458177 1.9190747e-38
-3.7385187 0.80876487 11.460779 1.9282583e-38
-3.7385018 0.79322183 11.463881 1.9742837e-38
-3.7387879 0.77774787 11.467433 1.965136e-38
-3.7392673 0.76230639 11.471197 1.9926866e-38
-3.7396324 0.74681622 11.474799 2.0294926e-38
-3.7397559 0.7312482 11.477967 2.0570432e-38
-3.7396691 0.71563423 11.480886 2.0662627e-38
-3.7397711 0.700113 11.484174 2.0938133e-38
-3.7400522 0.68472546 11.487866 2.2499695e-38
-3.740803 0.66962248 11.492511 2.2591531e-38
-3.7249234 0.82587868 11.465488 1.9191106e-38
-3.7244902 0.81017166 11.467912 1.9374777e-38
-3.7244337 0.79460734 11.470923 2.0018702e-38
-3.7247555 0.77914399 11.474535 1.965136e-38
-3.725343 0.76374447 11.478557 1.9926866e-38
-3.7257273 0.74827534 11.482203 2.0845939e-38
-3.7259905 0.73276716 11.485679 2.0478597e-38
-3.7259774 0.71718764 11.48874 2.0570432e-38
-3.7260752 0.70166022 11.492011 2.2591531e-38
-3.7264869 0.68633473 11.495942 2.2683366e-38
-3.7273502 0.67128295 11.500766 2.2775202e-38
-3.7108488 0.82728028 11.472708 1.9375136e-38
-3.7103715 0.81156087 11.474999 1.9374418e-38
-3.7103603 0.79601514 11.478065 2.0110537e-38
-3.7106352 0.78053838 11.481618 2.0386403e-38
-3.7112556 0.7651661 11.485697 2.0662268e-38
-3.7117605 0.74975151 11.489624 2.1580981e-38
-3.7120688 0.73426443 11.493216 2.2040159e-38
-3.7120836 0.71870893 11.496326 2.2775202e-38
-3.7122381 0.70321769 11.499675 2.2867037e-38
-3.7127395 0.68793565 11.503763 2.2867037e-38
