# .PCD v0.7 - Point Cloud Data file format
VERSION 0.7
FIELDS x y z
SIZE 4 4 4
TYPE F F F
COUNT 1 1 1
WIDTH 1534
HEIGHT 1
VIEWPOINT 0 0 0 1 0 0 0
POINTS 1534
DATA ascii
-2.9810772 1.2814159 11.857677
-2.9942074 1.3001839 11.844588
-2.99575 1.3127362 11.853333
-2.9849613 1.3369263 11.863886
-2.9957561 1.3472967 11.849355
-2.983958 1.3554839 11.862856
-2.985851 1.3739733 11.865732
-2.9935982 1.3923248 11.876505
-2.9975076 1.4107667 11.8821
-3.0010457 1.4292173 11.887196
-3.0024986 1.4477171 11.889479
-2.9984965 1.4663452 11.884404
-2.986882 1.477667 11.815382
-2.9851601 1.494634 11.805317
-2.9854054 1.502598 11.864665
-2.9849424 1.5125655 11.797625
-2.9710846 1.5362591 11.8041
-2.9710898 1.5543334 11.796759
-2.9707305 1.5721742 11.788842
-2.9692726 1.5893103 11.779194
-2.9685054 1.6068892 11.770635
-3.0367303 0.013940447 12.17945
-3.0317056 0.032288019 12.1324
-3.0311284 0.048945583 12.166996
-3.0979817 0.31887606 12.430988
-3.0956311 0.34123752 12.432236
-3.1026433 0.36379623 12.399367
-3.1009979 0.40450519 12.408883
-3.1009283 0.44569662 12.415154
-3.1004672 0.48676819 12.422232
-3.1238379 0.49596876 12.481194
-3.1085424 0.52560002 12.475325
-3.1109176 0.53156608 12.463904
-3.1115355 0.55000418 12.470876
-3.1117644 0.56868601 12.474262
-3.1109512 0.58802027 12.468055
-2.987283 0.58277768 11.957644
-2.9845066 0.60877651 11.949502
-2.9845173 0.63538551 11.944814
-2.9810464 0.63829076 11.950806
-2.9806561 0.65380108 11.94766
-2.9799497 0.66922927 11.944006
-2.9794898 0.70033342 11.938234
-2.9801204 0.71791065 11.944984
-2.9799988 0.73316723 11.941219
-2.9798684 0.74842083 11.937442
-2.9795051 0.76359653 11.933332
-2.9781599 0.77844405 11.927825
-2.976696 0.79325181 11.922149
-2.9759233 0.80829072 11.917457
-2.9759986 0.82361305 11.913972
-2.9772041 0.83931333 11.912097
-2.9821987 0.86264515 11.905521
-2.9773166 0.8749398 11.919045
-2.9721551 0.89465982 11.90275
-2.9723077 0.91242564 11.901298
-2.9724321 0.93018705 11.8998
-2.9848623 0.9314748 11.898618
-2.9724734 0.94793558 11.898168
-2.9724774 0.96567839 11.896476
-2.9725664 0.98343432 11.89492
-2.9726954 1.0011964 11.89343
-2.9726694 1.0189346 11.891689
-2.9731538 1.0367517 11.890774
-2.9745269 1.0547063 11.891294
-2.9737206 1.0723238 11.888292
-2.9739132 1.091565 11.893312
-2.9741194 1.1060575 11.891913
-2.9740214 1.1204933 11.890038
-2.9747169 1.1350771 11.889407
-2.9749715 1.1495787 11.888085
-2.9752207 1.1640793 11.886754
-2.9752576 1.1785403 11.885092
-2.9752519 1.1929933 11.883362
-2.9748871 1.2093068 11.880992
-2.9804888 1.2283492 11.868541
-2.9809556 1.2420831 11.869196
-2.9796617 1.2578033 11.865107
-2.9771659 1.2732807 11.859191
-2.9788947 1.3000013 11.855057
-2.9810104 1.3184854 11.858233
-2.970253 1.3367294 11.87517
-2.9798343 1.3481442 11.8567
-2.9782443 1.3651396 11.852242
-2.9795177 1.3826469 11.852221
-2.9789305 1.3921269 11.887843
-2.9824471 1.4105781 11.89291
-2.9854975 1.4290402 11.897347
-2.9870906 1.4475366 11.899819
-2.9699142 1.4632244 11.831653
-2.9763117 1.4781199 11.873049
-2.9710414 1.4820184 11.82608
-2.9694602 1.4990755 11.816238
-2.9692509 1.5170122 11.808558
-2.9793036 1.5413491 11.855662
-2.9784849 1.5608407 11.853832
-2.9776676 1.5803325 11.852004
-2.9544044 1.5762141 11.798776
-2.953052 1.593418 11.789293
-2.9523051 1.61101 11.780766
-3.0196612 0.029801656 12.185471
-3.0157003 0.043235805 12.142394
-3.0969064 0.5268907 12.435692
-3.0929654 0.54974818 12.474639
-3.0933168 0.56835324 12.479156
-3.0925016 0.58768886 12.472928
-3.0918853 0.6068998 12.468534
-2.9678962 0.63969094 11.959499
-2.9674897 0.65519708 11.956328
-2.9668977 0.67065501 11.952859
-2.9663296 0.70173097 11.946913
-2.9670594 0.70461059 11.957082
-2.9669993 0.71988773 11.953404
-2.9666371 0.75036108 11.945705
-2.9661663 0.7655009 11.941443
-2.9648585 0.78036088 11.935989
-2.9633851 0.79516548 11.9303
-2.9625275 0.81017596 11.925487
-2.9625773 0.82548982 11.921966
-2.9638515 0.84121305 11.920188
-2.9661191 0.86433518 11.914838
-2.9624465 0.87712336 11.929293
-2.95733 0.89560497 11.912621
-2.9575033 0.91337395 11.911202
-2.9576089 0.93113244 11.909675
-2.9705822 0.93239796 11.907868
-2.9576664 0.94888353 11.908069
-2.95767 0.96662623 11.906375
-2.9578252 0.9843924 11.904927
-2.957922 1.0021496 11.903385
-2.9578724 1.0198841 11.901607
-2.9584155 1.0377103 11.900785
-2.9598444 1.0556736 11.901396
-2.9590151 1.0732874 11.898356
-2.9623916 1.0926305 11.90226
-2.9625647 1.1071168 11.90081
-2.9624159 1.1215432 11.898856
-2.9629428 1.1360955 11.897961
-2.9633195 1.1506199 11.89683
-2.9635763 1.1651219 11.895511
-2.9636261 1.1795853 11.893868
-2.9636767 1.1940488 11.892226
-2.9629545 1.2103412 11.88938
-2.9654603 1.2296649 11.878967
-2.9682109 1.2433959 11.87908
-2.9668622 1.259105 11.874907
-2.9662461 1.281222 11.868795
-2.9636512 1.299817 11.86562
-2.9661694 1.3182917 11.869339
-2.957119 1.3364955 11.888577
-2.9693367 1.3552849 11.874257
-2.968025 1.3724302 11.876363
-2.9678199 1.3738545 11.872536
-2.9628615 1.3919621 11.897293
-2.9680595 1.4103737 11.904626
-2.9706595 1.4288464 11.908457
-2.972127 1.4473457 11.910759
-2.9712548 1.4653352 11.940979
-2.953553 1.4672419 11.841531
-2.9546251 1.4860004 11.835872
-2.9530277 1.5030471 11.826003
-2.9528897 1.5210296 11.818436
-2.9547532 1.5402957 11.814025
-2.9546878 1.5583248 11.806572
-2.9648955 1.5809935 11.867202
-3.0039365 0.046906214 12.191962
-3.0612009 0.32404742 12.383393
-3.062989 0.36580756 12.38584
-3.0615153 0.40656912 12.395002
-3.0614393 0.44775862 12.401286
-3.0607896 0.48877242 12.408752
-3.0848026 0.52577329 12.473694
-3.0742404 0.5495891 12.476978
-3.0747643 0.56808615 12.483083
-2.9659958 0.55906725 11.978733
-2.9670391 0.58590227 11.975323
-2.962733 0.61156631 11.965287
-2.9628041 0.63818848 11.960673
-2.9627147 0.66477555 11.95586
-2.9666364 0.68273097 11.960948
-2.961293 0.69107091 11.949396
-2.954402 0.70674276 11.966163
-2.9543195 0.7220124 11.962454
-2.9541936 0.73726761 11.958683
-2.9533815 0.76759052 11.950343
-2.9522233 0.78250045 11.945102
-2.9508123 0.79732597 11.939501
-2.9498546 0.81230295 11.934545
-2.9498792 0.82760841 11.930988
-2.9510732 0.84330481 11.929096
-2.9507425 0.86622357 11.925249
-2.9477923 0.87937379 11.939854
-2.9478056 0.89716476 11.936083
-2.9474936 0.91485494 11.931839
-2.9508967 0.93027008 11.923453
-2.9568474 0.93340456 11.917955
-2.9528084 0.95355213 11.916142
-2.9425325 0.96752304 11.915742
-2.9427001 0.98529112 11.914314
-2.9427717 1.0030444 11.912731
-2.9427133 1.0207776 11.910937
-2.9432511 1.0386029 11.910109
-2.9445248 1.0565422 11.910468
-2.9438369 1.0741779 11.907658
-2.9501405 1.0935599 11.910066
-2.9503036 1.1080444 11.908601
-2.9501674 1.1224731 11.906667
-2.9508595 1.1370562 11.90603
-2.9510682 1.1515493 11.904635
-2.9512563 1.1660385 11.90321
-2.951335 1.1805072 11.901611
-2.9514234 1.1949778 11.900029
-2.9513824 1.2114424 11.89831
-2.9503014 1.2309539 11.889183
-2.9417672 1.2458287 11.897396
-2.940393 1.2615327 11.893185
-2.9526961 1.2809979 11.881642
-2.9497936 1.2996 11.878051
-2.9526291 1.3180672 11.882198
-2.9453804 1.3343649 11.899008
-2.956305 1.3550485 11.887803
-2.9545498 1.3736237 11.885759
-2.9478552 1.3917722 11.908175
-2.9541564 1.3977624 11.934394
-2.9521291 1.4102055 11.914262
-2.9538033 1.4287 11.916843
-2.9537728 1.4397937 11.884412
-2.9582126 1.459901 11.892426
-2.9668636 1.4881259 11.94233
-2.936831 1.489099 11.843491
-2.935205 1.5061274 11.833577
-2.934895 1.5239996 11.825739
-2.9370446 1.543449 11.821778
-2.9368732 1.5614102 11.814158
-2.9524961 1.581674 11.882845
-2.9365423 1.5792689 11.806287
-2.9351585 1.5964527 11.796755
-2.9877493 0.06358283 12.198293
-2.9641311 0.094439566 12.11267
-3.0574517 0.52896321 12.421753
-2.9441013 0.53522396 11.99907
-3.0614848 0.57366502 12.473108
-2.947165 0.56250125 11.998163
-2.94785 0.58925778 11.994308
-2.9417312 0.61452502 11.982028
-2.9505026 0.62393755 11.991369
-2.9418085 0.64114851 11.977421
-2.9416387 0.66771799 11.972508
-2.9495671 0.68606991 11.973684
-2.9415066 0.69349813 11.978497
-2.9414811 0.7087869 11.974869
-2.9414022 0.72405767 11.971164
-2.9412901 0.73931742 11.967413
-2.9409893 0.7545141 11.963392
-2.9393976 0.7845763 11.953942
-2.9380891 0.79943615 11.948487
-2.9371037 0.81440389 11.943493
-2.9371042 0.82970124 11.939901
-2.9382102 0.84536827 11.937884
-2.9477005 0.8615585 11.943511
-2.9344714 0.87292367 11.944459
-2.9421558 0.89649606 11.921928
-2.9423294 0.9142651 11.92051
-2.942457 0.93202698 11.919017
-2.9353693 0.93377489 11.932423
-2.9425292 0.94978034 11.917435
-2.9310586 0.97504973 11.929667
-2.9303854 0.99514538 11.92624
-2.9330735 1.0034029 11.921577
-2.9301898 1.0153272 11.923536
-2.9280367 1.0394878 11.91935
-2.9291546 1.057403 11.919458
-2.9285927 1.0750582 11.916851
-2.9382045 1.0945481 11.918365
-2.9384191 1.1090422 11.916981
-2.9383407 1.1234818 11.915137
-2.939086 1.1380748 11.914584
-2.9392512 1.1525596 11.913121
-2.939404 1.1670423 11.91164
-2.9394794 1.1815104 11.910037
-2.9395363 1.1959752 11.908405
-2.9396455 1.212513 11.906991
-2.9295058 1.2312577 11.910136
-2.9284232 1.2470206 11.906369
-2.9271989 1.2627547 11.902386
-2.9381752 1.2807965 11.893179
-2.935513 1.2993931 11.889912
-2.9379427 1.3178698 11.893513
-2.942275 1.3363018 11.899678
-2.9414396 1.3548553 11.898875
-2.9396214 1.373432 11.896747
-2.9331448 1.3915753 11.919456
-2.9373753 1.4100096 11.925486
-2.9399905 1.4284821 11.929336
-2.9419806 1.433876 11.910637
-2.940891 1.453025 11.918276
-2.9512086 1.4833357 11.957497
-2.9466956 1.5061731 11.9587
-2.9376485 1.5431583 11.897258
-2.984848 0.052359995 12.219773
-2.9710214 0.07975968 12.204432
-2.9657502 0.094188243 12.136576
-2.9601905 0.11815308 12.161921
-3.01385 0.19868551 12.331985
-3.0227327 0.32642189 12.367424
-3.0244756 0.36816821 12.369964
-3.0229185 0.40890425 12.379297
-3.022644 0.45003298 12.38599
-3.0220368 0.49105978 12.393369
-3.0562236 0.56781161 12.48712
-3.0552607 0.5872398 12.479531
-3.0545321 0.60652107 12.474104
-3.0540166 0.625669 12.470636
-2.9327588 0.62702942 12.003163
-2.9329662 0.64793038 11.997993
-2.9330993 0.66880423 11.992721
-2.928472 0.69550419 11.987041
-2.9284849 0.71080577 11.983467
-2.9284327 0.72608548 11.9798
-2.9283421 0.7413525 11.97608
-2.9280436 0.75654989 11.972063
-2.927458 0.77165127 11.967637
-2.9252644 0.80151224 11.95733
-2.9242575 0.81647289 11.952305
-2.924238 0.83176357 11.948685
-2.9252849 0.8474108 11.946584
-2.9331648 0.86384565 11.954245
-2.9332891 0.88167101 11.950635
-2.9271171 0.89740813 11.931454
-2.9272819 0.91517586 11.930021
-2.9273992 0.93293613 11.928513
-2.9167824 0.93542993 11.943911
-2.9274666 0.95068878 11.926923
-2.9274447 0.96842754 11.925188
-2.927598 0.98619342 11.923738
-2.92764 1.003942 11.922107
-2.9276245 1.0216819 11.920382
-2.9184334 1.0406981 11.929394
-2.9181807 1.0579866 11.937407
-2.9197924 1.0686347 11.94696
-2.9254229 1.0953786 11.925341
-2.925606 1.1098669 11.923907
-2.9255228 1.1243054 11.922055
-2.9261932 1.1388845 11.921385
-2.9263785 1.1533731 11.919954
-2.9265764 1.1678642 11.918543
-2.9141088 1.1832073 11.924289
-2.9141068 1.197661 11.922565
-2.9143388 1.2143152 11.921605
-2.9148316 1.2321811 11.917088
-2.9138663 1.2479675 11.913498
-2.9126348 1.2637002 11.909504
-2.910332 1.2792166 11.903882
-2.9195414 1.2992259 11.899492
-2.9219632 1.3177029 11.903082
-2.9262497 1.3361359 11.909186
-2.9253373 1.3546913 11.908279
-2.9239438 1.373258 11.906723
-2.917578 1.3913987 11.929583
-2.9213128 1.4098446 11.934943
-2.9171503 1.4168186 11.902819
-2.922941 1.429813 11.91929
-2.9222996 1.4487475 11.927384
-2.9232974 1.4668984 11.937148
-2.9239686 1.4780566 11.918421
-2.9285626 1.5023305 11.970866
-2.9294541 1.5150605 11.907625
-2.9678485 0.068285711 12.225818
-2.9561024 0.091260791 12.153344
-2.9522772 0.11733335 12.172873
-2.9430733 0.13522157 12.162934
-2.9879928 0.17954278 12.306316
-2.9861431 0.20369998 12.322719
-2.9804971 0.22370575 12.318821
-2.9901943 0.23230308 12.330904
-2.9953382 0.26172927 12.337569
-2.9850719 0.27800754 12.335637
-3.0188599 0.53129983 12.406038
-2.9211149 0.53774822 12.013353
-3.0376592 0.57375228 12.472287
-2.924531 0.56510264 12.012882
-3.0361636 0.60613889 12.479724
-2.9240136 0.59159601 12.007539
-2.9212837 0.61760503 11.999455
-2.9149191 0.63008612 12.014823
-2.9212894 0.6442129 11.99476
-2.9208651 0.6707266 11.989532
-2.9213307 0.68686211 11.981445
-2.9154127 0.69750196 11.995548
-2.9141371 0.72007805 11.991594
-2.9141023 0.73558873 11.987467
-2.9147098 0.75132728 11.984207
-2.9131973 0.76631349 11.978085
-2.9124682 0.78157783 11.973021
-2.9110682 0.79660398 11.96705
-2.9102142 0.81182379 11.961816
-2.910193 0.82733929 11.957707
-2.912168 0.84938937 11.95501
-2.904444 0.86969823 11.963343
-2.9186509 0.88392639 11.961219
-2.9047689 0.89035273 11.960582
-2.9047687 0.91093433 11.957356
-2.9044757 0.93145025 11.953712
-2.9132946 0.93606478 11.944614
-2.9143188 0.9562043 11.943594
-2.9132671 0.97623169 11.939593
-2.91289 0.99638081 11.936615
-2.9020839 1.0132405 11.937388
-2.9128692 1.0165942 11.934175
-2.9141562 1.0370435 11.933718
-2.9073632 1.0603058 11.944442
-2.9071779 1.0694964 11.954198
-2.9005558 1.0971694 11.940382
-2.9007237 1.1116548 11.938924
-2.9005878 1.1260835 11.93699
-2.9011984 1.1406515 11.936225
-2.9014261 1.155148 11.934861
-2.9015734 1.1696296 11.933371
-2.9016221 1.1840928 11.931726
-2.901643 1.1985508 11.930038
-2.9075403 1.225546 11.921991
-2.900975 1.2332693 11.925282
-2.9000487 1.2490637 11.921751
-2.898771 1.2647871 11.917686
-2.8964543 1.2803007 11.912044
-2.9050875 1.299023 11.911119
-2.9073849 1.3175029 11.914541
-2.9116323 1.3359368 11.920593
-2.910738 1.3544918 11.91971
-2.9089966 1.3730667 11.917686
-2.9036615 1.3886088 11.910201
-2.9122727 1.4031199 11.927714
-2.9059327 1.4247788 11.930009
-2.9063623 1.4432013 11.939195
-2.9077642 1.461159 11.949369
-2.9092956 1.4790548 11.959677
-2.9020009 1.4981836 11.926253
-2.9660528 0.047630616 12.268004
-2.9533658 0.070421226 12.270118
-2.951251 0.084583133 12.232004
-2.9372723 0.13346548 12.171349
-2.937351 0.15906964 12.188272
-2.9585979 0.1791209 12.279774
-2.9636388 0.18708336 12.292382
-2.9657574 0.20897578 12.281996
-2.9672005 0.21531762 12.30125
-2.9674578 0.24106225 12.314717
-2.9790704 0.24879542 12.331944
-2.9676259 0.26673973 12.328309
-2.9848418 0.3289732 12.350266
-2.9862273 0.37061006 12.353541
-2.9848912 0.41141373 12.36242
-2.9846864 0.45256382 12.36897
-2.9839146 0.49354023 12.376687
-2.8996272 0.5406006 12.029492
-2.9031746 0.56798375 12.029183
-3.0145504 0.5982058 12.467217
-2.9026995 0.5944863 12.023892
-2.8999274 0.62048608 12.015757
-2.8998451 0.6470747 12.010953
-2.8992219 0.67354494 12.005478
-2.8985212 0.67532098 12.017578
-2.9026208 0.69958913 12.004437
-2.901088 0.72245359 12.000632
-2.9009979 0.7379446 11.99643
-2.9011822 0.75353307 11.992599
-2.9000974 0.76867104 11.987054
-2.8994534 0.78396553 11.982104
-2.8980734 0.79899877 11.976161
-2.8973129 0.8142519 11.971054
-2.8973699 0.82979518 11.967051
-2.8984356 0.84569645 11.96441
-2.9037294 0.86830717 11.975182
-2.8983476 0.87748456 11.962084
-2.8986619 0.89892906 11.960197
-2.9039087 0.90393645 11.967862
-2.8986373 0.9203195 11.957817
-2.898052 0.94162047 11.95462
-2.8971865 0.95750517 11.954519
-2.8962481 0.97755301 11.95069
-2.895776 0.99768496 11.947567
-2.8966489 1.0055797 11.945543
-2.8958018 1.0179068 11.945199
-2.8968945 1.038321 11.944447
-2.900568 1.0592008 11.947605
-2.8949456 1.0704292 11.962033
-2.8882844 1.0980951 11.948156
-2.8884535 1.1125807 11.9467
-2.8882904 1.1270043 11.944723
-2.8888659 1.1415657 11.943904
-2.88907 1.156058 11.942503
-2.8891695 1.1705306 11.940938
-2.8892264 1.1849953 11.939306
-2.8892455 1.1994529 11.937614
-2.8976135 1.2219948 11.932136
-2.8970397 1.2388266 11.931708
-2.8952651 1.2556969 11.929587
-2.8939016 1.272554 11.928047
-2.8924031 1.2894155 11.926315
-2.8914778 1.3062586 11.925392
-2.8905423 1.3160708 11.945631
-2.8938098 1.3369906 11.955553
-2.8958793 1.3582964 11.964103
-2.8976338 1.3797035 11.972292
-2.9003141 1.4008126 11.981541
-2.9075313 1.4084246 11.961223
-2.8870139 1.420658 11.938784
-2.9001722 1.4494107 11.991399
-2.8895934 1.4547648 11.939745
-2.8899817 1.475443 11.9425
-2.9096162 1.498799 11.982048
-2.9579704 1.5790251 12.206795
-2.9522038 0.067274421 12.296061
-2.9420807 0.091686726 12.298324
-2.9427295 0.094508827 12.272351
-2.93209 0.1210062 12.248573
-2.924911 0.15352105 12.191446
-2.9426286 0.17159237 12.259965
-2.9439735 0.19033627 12.254114
-2.9419017 0.19659552 12.274803
-2.9464185 0.21757458 12.262322
-2.9490104 0.25144407 12.325885
-2.955085 0.28069684 12.329484
-2.9555998 0.30686381 12.340143
-2.9496541 0.33235207 12.327541
-2.8564985 0.33847007 11.908215
-2.9511063 0.3740094 12.330679
-2.8987563 0.5138033 12.033115
-2.9921157 0.62333536 12.455786
-2.8979752 0.65429598 12.022275
-2.8905785 0.70192701 12.014395
-2.8892527 0.709737 12.015389
-2.8891847 0.72523588 12.011218
-2.8890777 0.74072093 12.006993
-2.8882394 0.77146947 11.997701
-2.8876388 0.78677934 11.99281
-2.8861349 0.8017686 11.986699
-2.885241 0.81697434 11.981412
-2.8852458 0.83249909 11.977338
-2.8862562 0.84838074 11.974623
-2.8833461 0.85925412 11.981154
-2.8809536 0.87886715 11.974702
-2.8812244 0.90030479 11.972752
-2.8876672 0.91277623 11.96911
-2.8813436 0.92171818 11.970581
-2.8808506 0.94303387 11.967519
-2.880744 0.95893049 11.966489
-2.8799088 0.97899699 11.962816
-2.8795116 0.99914247 11.959807
-2.8795462 1.0070088 11.958586
-2.8794725 1.0193526 11.95734
-2.8803484 1.0397277 11.95626
-2.8840823 1.0606184 11.95951
-2.8827777 1.0713742 11.96997
-2.8760388 1.0990255 11.955971
-2.8761637 1.1135029 11.954445
-2.8760154 1.1279293 11.952492
-2.876544 1.1424819 11.951599
-2.8767216 1.1569692 11.950156
-2.8768091 1.1714395 11.948572
-2.8768609 1.1859033 11.946933
-2.8768771 1.2003604 11.945237
-2.8840587 1.2217691 11.942093
-2.8834507 1.238602 11.941617
-2.881578 1.2554755 11.939358
-2.88007 1.2723372 11.937613
-2.8783114 1.2892069 11.935515
-2.8773859 1.3060501 11.934592
-2.8820662 1.3273998 11.950363
-2.8824742 1.3475788 11.953648
-2.8832231 1.3676966 11.957382
-2.8872509 1.3872279 11.965443
-2.8913383 1.4067485 11.973581
-2.8874092 1.4180882 11.943281
-2.8878925 1.4388658 11.948426
-2.8896079 1.4566736 11.95892
-2.8912857 1.4744995 11.969377
-2.8925416 1.492527 11.979403
-2.8847213 1.4969171 11.937922
-2.9312437 0.1156474 12.300546
-2.9129748 0.14452705 12.207534
-2.9103453 0.1699627 12.189892
-2.8964286 0.19122833 12.14234
-2.9092057 0.19758607 12.190559
-2.9254723 0.22528125 12.244691
-2.9306352 0.23469637 12.293675
-2.9202735 0.24827744 12.262605
-2.8535237 0.29024783 11.987719
-2.9331534 0.31373808 12.324416
-2.8554657 0.31445745 11.948025
-2.9352047 0.34075797 12.333124
-2.8806443 0.3668423 12.0517
-2.94943 0.41470891 12.340259
-2.9493222 0.45588869 12.346608
-2.9482892 0.49678513 12.354863
-2.8791077 0.51705825 12.051533
-2.8798482 0.54382694 12.047748
-2.8828557 0.57109189 12.04677
-2.8826575 0.59765512 12.041822
-2.8797092 0.62361634 12.033468
-2.8796771 0.65021592 12.028726
-2.879241 0.67672712 12.023483
-2.8782504 0.70416921 12.023944
-2.8764317 0.71219355 12.024736
-2.8763361 0.72768265 12.020527
-2.8762197 0.74316436 12.01629
-2.8769507 0.75894684 12.013196
-2.875416 0.77392524 12.007044
-2.8731246 0.80415791 11.99579
-2.8721335 0.81932926 11.990372
-2.8721302 0.83485109 11.986287
-2.873126 0.85072756 11.983551
-2.8690746 0.86136431 11.991374
-2.8633213 0.88021183 11.986973
-2.8637519 0.90167493 11.985255
-2.8707299 0.91465497 11.9811
-2.8638625 0.92308694 11.983072
-2.863198 0.94437528 11.97976
-2.8640871 0.96031719 11.978134
-2.8633659 0.9804042 11.974634
-2.8629704 1.0005499 11.971627
-2.8620145 1.0083696 11.971004
-2.862921 1.0207582 11.969146
-2.8637111 1.0411179 11.967935
-2.8673344 1.0619886 11.971017
-2.8703859 1.0722774 11.977555
-2.8636885 1.0999364 11.963621
-2.8637869 1.1144089 11.962054
-2.8636107 1.1288301 11.960058
-2.8641348 1.143382 11.959158
-2.8642495 1.1578574 11.957616
-2.8643763 1.1723351 11.956094
-2.8644254 1.1867983 11.95445
-2.8644145 1.2012504 11.952712
-2.8685107 1.2216071 11.94924
-2.867861 1.2384415 11.948705
-2.8660722 1.2553121 11.946565
-2.8644736 1.2721767 11.944693
-2.8625484 1.2890518 11.94236
-2.8617582 1.3058906 11.941627
-2.8752856 1.3333539 11.968486
-2.8657398 1.3459995 11.965292
-2.8771365 1.3547301 11.976785
-2.8795884 1.3759127 11.985773
-2.8819039 1.3971392 11.994604
-2.8808968 1.4194361 11.999629
-2.883568 1.423872 11.998748
-2.8760715 1.4429631 12.000279
-2.8722305 1.451816 11.969264
-2.8733797 1.4698944 11.979182
-2.8742275 1.488117 11.988793
-2.9149892 0.13859287 12.276439
-2.8993151 0.15925586 12.202938
-2.8873966 0.17483735 12.198077
-2.8928955 0.19074565 12.214863
-2.8799736 0.21018907 12.119544
-2.916796 0.22912061 12.275742
-2.8707764 0.25515094 12.119618
-2.907918 0.26730162 12.289605
-2.9108715 0.2948221 12.297168
-2.8760056 0.31107417 12.085776
-2.8622122 0.35463279 12.092537
-2.869683 0.38386995 12.077553
-2.8695023 0.41109735 12.059517
-2.8625221 0.43653888 12.03877
-2.8604491 0.49392322 12.075878
-2.8580384 0.52000219 12.06819
-2.8591163 0.54684472 12.064822
-2.8618252 0.57404429 12.063475
-2.8599534 0.60024118 12.056455
-2.858505 0.62653077 12.049958
-2.8584559 0.65312666 12.045195
-2.8670583 0.6654318 12.046302
-2.8578854 0.67960835 12.039786
-2.8627567 0.69882399 12.037009
-2.8625696 0.71428061 12.032677
-2.8624971 0.72977787 12.028499
-2.8624008 0.74526674 12.024288
-2.8630373 0.76101577 12.021068
-2.8616097 0.77603209 12.015059
-2.8608687 0.79129207 12.009979
-2.8581703 0.82138038 11.998175
-2.8581665 0.83690214 11.99409
-2.8458419 0.8550579 12.000027
-2.8493845 0.86156994 12.00488
-2.8457892 0.88157243 11.99939
-2.8462329 0.90303767 11.997691
-2.853492 0.91646624 11.992659
-2.8463602 0.9244523 11.995532
-2.8456867 0.94573921 11.992207
-2.8470886 0.96164221 11.989262
-2.8464231 0.98173928 11.985847
-2.846103 1.0018986 11.982954
-2.8445985 1.0097487 11.983589
-2.8463442 1.0221593 11.980912
-2.8468955 1.0424759 11.97934
-2.850646 1.0633696 11.982615
-2.8463066 1.082804 11.973633
-2.8453825 1.1028544 11.969826
-2.8454373 1.1064029 11.970305
-2.844753 1.1229579 11.966465
-2.8453317 1.1432794 11.964934
-2.8455667 1.1635389 11.962883
-2.8508165 1.1710731 11.952218
-2.8517609 1.1878564 11.953931
-2.8543894 1.204586 11.958016
-2.855027 1.2213792 11.959296
-2.8542392 1.2382179 11.958567
-2.8522985 1.2550935 11.956213
-2.8506136 1.2719609 11.954219
-2.8485448 1.2888404 11.951684
-2.8478284 1.3056769 11.951055
-2.85483 1.3303393 11.979206
-2.8565905 1.3517447 11.987401
-2.850184 1.3644613 11.981237
-2.8584747 1.3731102 11.995739
-2.8630512 1.3936082 12.007161
-2.8624249 1.4157825 12.012622
-2.8594162 1.4387243 12.015354
-2.8589141 1.4450167 11.983742
-2.8600333 1.4631096 11.993629
-2.8607109 1.4814136 12.003067
-2.8536403 1.4938941 11.965773
-2.8948319 1.5437566 12.162254
-2.9083607 1.5843718 12.184007
-2.9066098 1.5995624 12.198487
-2.8806603 0.19295664 12.192424
-2.8673847 0.21157859 12.177999
-2.8677325 0.22255839 12.159053
-2.8523526 0.23362093 12.128189
-2.8960886 0.25418672 12.249085
-2.885669 0.27428532 12.273627
-2.9067268 0.29214862 12.314626
-2.861834 0.2999838 12.128314
-2.9103031 0.32038802 12.309202
-2.9112866 0.34681529 12.319266
-2.9116457 0.37608007 12.316753
-2.8508201 0.39882222 12.100256
-2.8502252 0.42594084 12.082054
-2.8434994 0.45144916 12.061409
-2.842629 0.47849539 12.043097
-2.855741 0.61474514 12.076881
-2.8537054 0.63235068 12.069363
-2.8534169 0.65056169 12.064127
-2.8527486 0.66864103 12.058394
-2.8526306 0.68691111 12.053381
-2.8495371 0.70113909 12.045817
-2.8493602 0.71659935 12.041498
-2.8493018 0.73210168 12.037339
-2.8492198 0.74759555 12.033148
-2.8368831 0.76574701 12.039068
-2.8484457 0.77836686 12.023943
-2.8346992 0.796018 12.027959
-2.8460031 0.80854601 12.012485
-2.8449268 0.83921009 12.002871
-2.831882 0.84158719 12.011914
-2.8327143 0.85740566 12.008959
-2.8348038 0.87678897 12.008593
-2.8354592 0.89751762 12.006305
-2.8356583 0.91814393 12.003365
-2.8354716 0.93868375 11.999872
-2.8349645 0.95277524 11.997954
-2.8345232 0.95905262 11.99529
-2.8339119 0.97949719 11.99119
-2.8337836 1.0000501 11.987782
-2.8337018 1.0206134 11.984439
-2.8286521 1.0233593 11.990989
-2.8408048 1.0429951 11.989726
-2.8428562 1.0624225 11.990403
-2.8409226 1.0811278 11.98521
-2.8388059 1.0997998 11.979748
-2.8377116 1.1186571 11.975791
-2.8267844 1.124108 11.976123
-2.827265 1.1444118 11.974443
-2.8276956 1.1647066 11.972689
-2.8383167 1.1708137 11.963662
-2.8392236 1.1875982 11.965322
-2.8417237 1.204332 11.969227
-2.8423808 1.2211245 11.970534
-2.8413506 1.2379709 11.969463
-2.839133 1.2548554 11.966718
-2.8374112 1.2717239 11.964672
-2.8354003 1.2886016 11.962218
-2.8347845 1.3054349 11.961732
-2.8349824 1.327129 11.990623
-2.8368888 1.3484874 11.998985
-2.8401651 1.3694042 12.008918
-2.8444116 1.3900087 12.019961
-2.8437171 1.401549 12.011918
-2.8449397 1.4118111 12.026745
-2.8465207 1.4377763 11.99916
-2.8477304 1.4558259 12.009139
-2.8483381 1.4741633 12.018506
-2.8775067 1.5222311 12.152236
-2.8759594 1.5370339 12.166989
-2.8923528 1.5603355 12.175756
-2.89062 1.5754917 12.190261
-2.8574083 0.22853853 12.168432
-2.852268 0.24248353 12.151433
-2.8430412 0.25526983 12.119909
-2.836081 0.27757752 12.111377
-2.8841696 0.29933459 12.286844
-2.8451908 0.31551901 12.151901
-2.8439927 0.34247926 12.13346
-2.8294208 0.34848443 12.084258
-2.8429308 0.36947516 12.115073
-2.8317571 0.44099686 12.104915
-2.8412402 0.49727437 12.094839
-2.8221068 0.5202868 12.047175
-2.8406358 0.55035532 12.084686
-2.8426061 0.57739323 12.082424
-2.8388979 0.6031881 12.073129
-2.8370283 0.61642826 12.083223
-2.8371267 0.62940699 12.066233
-2.8370407 0.65599483 12.061423
-2.8358552 0.6709547 12.067112
-2.836345 0.68244916 12.05586
-2.8365183 0.70352542 12.054896
-2.8363373 0.71898425 12.050571
-2.8362796 0.73448682 12.046413
-2.8229396 0.75228214 12.050979
-2.8236756 0.76806647 12.047893
-2.8221581 0.78305084 12.041763
-2.8215158 0.79834586 12.036816
-2.8199816 0.81332439 12.030664
-2.8188345 0.82844037 12.025035
-2.8187613 0.8439374 12.020856
-2.819207 0.8652342 12.02284
-2.8269835 0.88272983 12.009952
-2.8273215 0.90417814 12.0081
-2.8175404 0.91975784 12.013664
-2.8273425 0.92557585 12.005785
-2.826786 0.94688141 12.002631
-2.8289924 0.96276921 11.998727
-2.8285878 0.98291337 11.995707
-2.8236163 1.0059644 12.003198
-2.8261652 1.0109655 11.994694
-2.8235564 1.0250093 12.000765
-2.8208342 1.0435715 11.994411
-2.8251507 1.0634094 11.998425
-2.8201971 1.0815674 11.988783
-2.821527 1.1008641 11.988398
-2.8204339 1.1197215 11.984443
-2.8146029 1.1259986 11.985638
-2.820401 1.1387713 11.98205
-2.8202968 1.1578081 11.979551
-2.8231661 1.170639 11.97137
-2.8240461 1.1874244 11.972991
-2.8263602 1.204164 11.976634
-2.8265116 1.2209728 11.977228
-2.8255446 1.2378172 11.976247
-2.823997 1.2546802 11.974446
-2.8222942 1.2715482 11.972426
-2.8202484 1.288427 11.969924
-2.8197291 1.3052572 11.969573
-2.8203309 1.3680826 12.002322
-2.8275106 1.385849 12.034754
-2.827719 1.4077544 12.041171
-2.8311543 1.4133292 12.002803
-2.8414178 1.4349183 12.028889
-2.8332896 1.4495643 12.022472
-2.8337214 1.4679857 12.03166
-2.832828 1.4870408 12.039499
-2.8448007 0.25513631 12.178543
-2.8405778 0.27451971 12.167609
-2.8355911 0.28632662 12.134665
-2.8570671 0.31424919 12.271003
-2.8299999 0.32679048 12.172456
-2.8617253 0.34162289 12.276225
-2.8290479 0.35726628 12.107533
-2.8639646 0.36868954 12.282563
-2.8245144 0.38454473 12.137954
-2.8120098 0.40100819 12.090804
-2.8295836 0.41315109 12.122011
-2.8539517 0.45456693 12.26531
-2.8221507 0.46574855 12.08312
-2.8208747 0.49268827 12.064648
-2.8186526 0.49988598 12.109615
-2.8174918 0.55284506 12.098773
-2.8202479 0.58005506 12.097485
-2.8165114 0.60584366 12.088154
-2.8216066 0.61925203 12.093863
-2.8157709 0.63228822 12.082535
-2.8156013 0.65885776 12.077622
-2.8199654 0.67361623 12.077141
-2.8144274 0.68520737 12.071466
-2.8230748 0.70576102 12.063402
-2.8229644 0.72124493 12.059173
-2.8094435 0.73897606 12.063494
-2.8093953 0.75448197 12.059348
-2.8100801 0.77024812 12.056193
-2.8085561 0.78523022 12.050056
-2.8079398 0.80053455 12.045143
-2.8065181 0.81555289 12.039143
-2.805377 0.83067101 12.033522
-2.80528 0.84615952 12.02931
-2.8032937 0.8668353 12.030686
-2.8078144 0.88382924 12.019984
-2.8081918 0.90528381 12.018189
-2.8028271 0.9184559 12.019487
-2.8081899 0.92667788 12.015842
-2.8079085 0.94802737 12.013088
-2.8041477 0.96852052 12.013311
-2.8058865 0.98789126 12.013528
-2.8049316 1.0067739 12.009777
-2.8075256 1.0121493 12.005497
-2.8028655 1.0254551 12.004389
-2.8026838 1.0444778 12.001777
-2.8065312 1.0642308 12.005099
-2.8023198 1.0825231 11.996552
-2.8009434 1.1013293 11.992179
-2.801199 1.1204313 11.990211
-2.8088496 1.1252642 11.985832
-2.8015118 1.1395437 11.988328
-2.8015404 1.1586045 11.986025
-2.8095829 1.1872278 11.981668
-2.8119812 1.2039647 11.985429
-2.8118932 1.2207811 11.985686
-2.8010993 1.2328553 11.985097
-2.810678 1.2376335 11.984354
-2.8095293 1.2544837 11.983116
-2.8081186 1.2713423 11.981508
-2.8061628 1.2882184 11.979133
-2.8059137 1.3050399 11.979162
-2.817065 1.3232968 12.004251
-2.8192627 1.3445612 12.012947
-2.8228452 1.3653796 12.02323
-2.8138759 1.3897964 12.004499
-2.8139296 1.4083986 12.013302
-2.8262289 1.430207 12.045643
-2.815907 1.4447091 12.032811
-2.8163283 1.4631356 12.041988
-2.8159914 1.4819245 12.050393
-2.8724394 1.5870628 12.262802
-2.8344874 0.31267649 12.204488
-2.8416383 0.32046181 12.248429
-2.8386662 0.34686691 12.257172
-2.8283601 0.35372981 12.232236
-2.8281894 0.38049054 12.239686
-2.8407757 0.4006995 12.270941
-2.8325398 0.4078252 12.24505
-2.8120222 0.42844519 12.145233
-2.8155682 0.45665142 12.128683
-2.8280535 0.48007962 12.22398
-2.8084641 0.48206037 12.107886
-2.8069465 0.5089367 12.089318
-2.8436964 0.52885199 12.244179
-2.8043878 0.53553951 12.070333
-2.8041251 0.60305089 12.106672
-2.8055611 0.62185961 12.103688
-2.8053057 0.64008206 12.098495
-2.8049788 0.65827978 12.093209
-2.8099551 0.66982204 12.085712
-2.8094437 0.68652618 12.080008
-2.7962251 0.71024549 12.080463
-2.796041 0.72570324 12.076135
-2.7960768 0.74123895 12.072103
-2.796006 0.75673681 12.067927
-2.7960882 0.7722891 12.063958
-2.795125 0.78747028 12.058578
-2.7945595 0.80279255 12.053734
-2.7933311 0.81787962 12.047995
-2.7922263 0.83301049 12.042423
-2.7970362 0.85909176 12.030225
-2.7882116 0.86866933 12.039676
-2.7891564 0.88501018 12.030762
-2.7896876 0.90648931 12.029191
-2.7995126 0.92139202 12.024093
-2.7899401 0.92792398 12.027214
-2.7904589 0.94940114 12.025625
-2.7870123 0.96961075 12.022172
-2.788636 0.98896068 12.02222
-2.7855108 1.00745 12.015271
-2.7900419 1.0135177 12.017984
-2.7851419 1.0264387 12.012383
-2.7856061 1.0455786 12.010723
-2.7885385 1.0651656 12.012697
-2.7856078 1.0836902 12.006036
-2.7842097 1.1024925 12.001633
-2.7844472 1.1215911 11.999638
-2.7911139 1.1264561 11.995843
-2.7848551 1.1407207 11.997893
-2.7852376 1.1598457 11.996112
-2.7944734 1.1870518 11.989432
-2.7968802 1.2037884 11.993206
-2.7966564 1.2206092 11.993272
-2.7957301 1.2374523 11.992347
-2.7968595 1.2542298 11.99432
-2.7959027 1.2710738 11.993353
-2.7926497 1.2879913 11.989148
-2.7893894 1.2888049 11.988134
-2.7922058 1.3048191 11.988903
-2.808491 1.3384269 12.034761
-2.8109136 1.3596189 12.043715
-2.8123469 1.3811296 12.051537
-2.8124154 1.40308 12.057794
-2.8056836 1.4201335 12.060235
-2.7992244 1.4395193 12.043862
-2.8001406 1.4577091 12.053543
-2.8013961 1.4755226 12.055745
-2.8109002 1.4852784 12.094876
-2.821033 1.5461948 12.131969
-2.8425801 1.6130042 12.201852
-2.842402 1.628868 12.22886
-2.8307724 0.29719827 12.280664
-2.8329091 0.33906519 12.282393
-2.8353267 0.38101813 12.283543
-2.8194983 0.41434088 12.221376
-2.8297615 0.43425491 12.253703
-2.8115206 0.44828174 12.202738
-2.8177087 0.46767849 12.236944
-2.8126974 0.47521353 12.209566
-2.8248091 0.49536219 12.24104
-2.8199477 0.50291628 12.213593
-2.8111274 0.52967072 12.2068
-2.8113682 0.55426985 12.207177
-2.794394 0.58195156 12.108215
-2.7941082 0.60849559 12.103159
-2.789712 0.6245352 12.11377
-2.7941275 0.63510644 12.09848
-2.7939024 0.66166383 12.093499
-2.7952914 0.67267632 12.095189
-2.7930264 0.6880787 12.087712
-2.794421 0.70614004 12.083963
-2.7834988 0.72825873 12.085857
-2.7835133 0.74378693 12.081797
-2.783407 0.75927222 12.077573
-2.7839682 0.77499443 12.074251
-2.7824876 0.78999197 12.068172
-2.7818673 0.80529481 12.063253
-2.7806668 0.82039183 12.057552
-2.7795255 0.83550978 12.051931
-2.7862854 0.85087919 12.04055
-2.7794397 0.86082262 12.04127
-2.7809894 0.88175184 12.040262
-2.7728527 0.90796125 12.042623
-2.7819715 0.92313528 12.035217
-2.7730989 0.92939484 12.040637
-2.7730968 0.95078892 12.038289
-2.7713861 0.97097456 12.033257
-2.7715635 0.99006236 12.031174
-2.776865 1.0069745 12.02558
-2.7737722 1.0150799 12.03224
-2.770179 1.0279227 12.024445
-2.7707188 1.0470762 12.022895
-2.7740488 1.0667354 12.025455
-2.7707732 1.0851974 12.018286
-2.7696102 1.1040423 12.014229
-2.7698789 1.1231467 12.01228
-2.7759502 1.1281122 12.00975
-2.7703159 1.1422814 12.010579
-2.7705746 1.161384 12.008615
-2.7688875 1.1865518 12.011494
-2.7696614 1.2033406 12.012966
-2.7703965 1.2201307 12.014382
-2.7706077 1.2369374 12.015061
-2.7705915 1.2537515 12.01542
-2.7837107 1.2708046 12.00523
-2.7795999 1.2877495 11.999817
-2.7785983 1.3045951 11.998786
-2.7739539 1.3058586 11.995378
-2.7966568 1.3326348 12.055359
-2.798609 1.3539784 12.063774
-2.7985473 1.3759707 12.069882
-2.7878382 1.397272 12.073489
-2.79794 1.3981389 12.075365
-2.7973471 1.4203024 12.080865
-2.8039892 1.4373014 12.086487
-2.7981505 1.458034 12.110672
-2.7853963 1.4708643 12.070494
-2.8068521 1.5044709 12.119954
-2.8173094 1.5651083 12.157209
-2.816011 1.5819355 12.183659
-2.7964172 0.2596193 12.250098
-2.773778 0.50517488 12.139541
-2.7723718 0.5314737 12.133097
-2.7724159 0.55808997 12.128449
-2.7729125 0.58480531 12.124362
-2.7729471 0.6114195 12.119702
-2.7820601 0.62538105 12.121657
-2.7729158 0.63801926 12.114962
-2.781285 0.65887952 12.110547
-2.7726243 0.66456205 12.109898
-2.779757 0.69210404 12.098527
-2.770113 0.71358693 12.099154
-2.7699394 0.72956055 12.094913
-2.7700956 0.74563366 12.091067
-2.7700622 0.76164967 12.086995
-2.7701075 0.77768934 12.083016
-2.7749071 0.78766501 12.075027
-2.7681115 0.80913919 12.072558
-2.7669737 0.82482201 12.067163
-2.7668505 0.84081078 12.062982
-2.7638943 0.86150062 12.056791
-2.7723324 0.87474155 12.05439
-2.7723033 0.88647914 12.044167
-2.7731981 0.89473706 12.051991
-2.7736902 0.91464436 12.049098
-2.7619116 0.93549913 12.052434
-2.7619481 0.95329261 12.04966
-2.7605209 0.96798325 12.042514
-2.7598836 0.98808539 12.039142
-2.7695553 1.008754 12.02587
-2.7632816 1.0247321 12.040237
-2.7619202 1.028887 12.037412
-2.763247 1.0493436 12.037015
-2.7586129 1.0681337 12.03682
-2.7552347 1.0865771 12.0295
-2.7584739 1.0958587 12.03312
-2.7541859 1.1244982 12.023266
-2.7598946 1.1296073 12.022306
-2.7546356 1.1436355 12.021584
-2.7546611 1.1626958 12.019276
-2.7562416 1.1862971 12.022732
-2.7573757 1.2030743 12.024712
-2.758292 1.2198586 12.026383
-2.7583227 1.2366712 12.026808
-2.7582755 1.2534863 12.027122
-2.7576528 1.2703197 12.026627
-2.7649877 1.2875576 12.008284
-2.7630711 1.3044324 12.005962
-2.762325 1.3157904 12.033154
-2.764426 1.3341079 12.040778
-2.7648814 1.3529304 12.046603
-2.7673802 1.3711256 12.054662
-2.7836971 1.3931229 12.093203
-2.7865124 1.4141228 12.099925
-2.7751203 1.4237278 12.043431
-2.7699716 1.434787 12.015524
-2.7710056 1.4536402 12.026325
-2.7945619 1.4768312 12.13598
-2.7895532 1.4968499 12.160579
-2.8010235 1.5251948 12.144145
-2.7948072 1.5462521 12.168142
-2.8202863 1.6096796 12.239985
-2.7944241 0.3002218 12.26033
-2.7941561 0.34135252 12.26701
-2.7953453 0.38292935 12.270689
-2.7919154 0.42309198 12.283879
-2.7682104 0.51739454 12.190774
-2.7685258 0.5362013 12.181256
-2.7686205 0.55496329 12.171653
-2.7572677 0.61131692 12.137819
-2.7671196 0.62813461 12.1308
-2.7596247 0.64466006 12.128432
-2.7592874 0.66515481 12.123292
-2.7651517 0.67808932 12.113162
-2.7599242 0.68583179 12.118919
-2.7598157 0.70636934 12.113959
-2.7569733 0.71603507 12.108883
-2.7624593 0.74336094 12.098249
-2.7622771 0.75900739 12.093674
-2.7624321 0.77476519 12.089499
-2.7615793 0.79019016 12.084126
-2.7605393 0.80555332 12.078529
-2.7590966 0.8207835 12.072453
-2.7537463 0.83669358 12.070047
-2.7547977 0.85673296 12.067893
-2.7567482 0.87698454 12.066924
-2.754564 0.88780671 12.056282
-2.7576356 0.89698517 12.064553
-2.7580898 0.91688347 12.061611
-2.7587111 0.93682128 12.058889
-2.7595425 0.95680869 12.056445
-2.7565057 0.9724735 12.045439
-2.7555587 0.99135751 12.041699
-2.7539313 1.0101182 12.036958
-2.7565792 1.0164945 12.045151
-2.7544801 1.0292734 12.035422
-2.7550449 1.0484314 12.033909
-2.7432303 1.0695416 12.048264
-2.7508943 1.0840333 12.034638
-2.7537556 1.1053647 12.024977
-2.7501512 1.1190273 12.02914
-2.7512255 1.1367856 12.028461
-2.74036 1.145244 12.034657
-2.7407317 1.1643671 12.03286
-2.7535496 1.18788 12.026999
-2.7427351 1.205043 12.040665
-2.7431684 1.2219791 12.040979
-2.7434945 1.2389127 12.041145
-2.7429125 1.2558249 12.040049
-2.753865 1.2725171 12.026
-2.7524049 1.2873009 12.019609
-2.7503781 1.3041792 12.017134
-2.7632437 1.3241901 12.085389
-2.766453 1.3451288 12.095245
-2.7664461 1.3671035 12.101416
-2.7514012 1.3606249 12.029778
-2.7661097 1.3891844 12.107209
-2.7525415 1.4055471 12.077786
-2.7612972 1.4186419 12.059093
-2.7544708 1.4279023 12.029064
-2.7552993 1.446853 12.039673
-2.7555401 1.4660826 12.049734
-2.7929745 1.5635391 12.194324
-2.7610118 0.47025296 12.237363
-2.760916 0.48897633 12.227684
-2.76108 0.50775236 12.218106
-2.761169 0.52651316 12.2085
-2.7612772 0.54527795 12.198901
-2.7584896 0.55525929 12.218305
-2.7580662 0.5739162 12.208496
-2.7568762 0.59241766 12.198385
-2.7565629 0.61109692 12.18862
-2.7615173 0.62029779 12.160429
-2.7454624 0.64828634 12.143725
-2.7531159 0.66500956 12.1309
-2.7448144 0.66872299 12.13834
-2.7446928 0.6892581 12.133369
-2.7439559 0.70967811 12.127914
-2.7503183 0.73057151 12.113119
-2.7501104 0.74620938 12.108513
-2.7372918 0.76460934 12.113859
-2.7373171 0.78032422 12.109529
-2.7364738 0.79575235 12.104168
-2.7353671 0.81109357 12.098492
-2.7397947 0.81953084 12.088277
-2.7372944 0.83873171 12.081437
-2.7383735 0.85877764 12.079319
-2.7406657 0.87910986 12.078801
-2.7380705 0.88933313 12.070211
-2.7416539 0.89913428 12.076564
-2.7422519 0.91906655 12.073811
-2.7429645 0.93902594 12.07121
-2.7432709 0.95888937 12.068072
-2.7415144 0.97395229 12.057458
-2.7401938 0.99276865 12.053169
-2.7395868 0.99654692 12.060698
-2.7387557 1.0115637 12.048706
-2.7395728 1.0307674 12.047565
-2.7399199 1.049886 12.045732
-2.7358532 1.0640078 12.057912
-2.740176 1.0880437 12.041419
-2.7391782 1.1069185 12.037605
-2.7395825 1.1260475 12.035856
-2.7363381 1.1379877 12.037984
-2.7273715 1.1470858 12.049626
-2.7287333 1.1663883 12.049288
-2.7298248 1.1883045 12.051992
-2.7307279 1.2052518 12.05296
-2.7312081 1.2221891 12.05334
-2.7316704 1.2391258 12.053696
-2.7299261 1.2560107 12.050983
-2.7282982 1.2728981 12.048433
-2.737458 1.289548 12.031892
-2.736059 1.3064408 12.02966
-2.7407084 1.3143681 12.038218
-2.7430394 1.3326149 12.046092
-2.7436669 1.3513846 12.052105
-2.7463443 1.369525 12.060359
-2.7369795 1.3833035 12.084138
-2.7397611 1.4014119 12.092505
-2.74581 1.4371151 12.058825
-2.7434266 1.4575902 12.066436
-2.7528322 0.49093878 12.211801
-2.7514157 0.50906765 12.201368
-2.7513494 0.52752447 12.191555
-2.7572165 0.53625828 12.227444
-2.7490656 0.55646396 12.201536
-2.7495255 0.57504851 12.191964
-2.7495487 0.59352696 12.182191
-2.7330773 0.61112916 12.17017
-2.7331598 0.63170242 12.16536
-2.7410424 0.63502574 12.153681
-2.7340162 0.6524204 12.161161
-2.7330465 0.67279691 12.155521
-2.7325068 0.69325387 12.150222
-2.731437 0.71361166 12.144504
-2.7269547 0.72100234 12.139593
-2.7266192 0.73659813 12.134835
-2.7263412 0.75221288 12.130145
-2.7260802 0.76783329 12.125476
-2.7261961 0.7835781 12.121255
-2.7245288 0.81444079 12.110553
-2.7248557 0.82192612 12.101663
-2.7228122 0.8412348 12.095426
-2.7237685 0.86125171 12.093145
-2.7300103 0.86676878 12.079215
-2.7256382 0.88148421 12.092071
-2.7265251 0.90148473 12.089699
-2.7269204 0.92136919 12.086679
-2.7271416 0.94121253 12.083429
-2.7269704 0.96096331 12.079662
-2.7291107 0.97590011 12.073289
-2.7266657 0.99451262 12.067343
-2.7294409 1.0011288 12.075838
-2.7244105 1.0131596 12.061677
-2.7242029 1.0321776 12.059027
-2.724122 1.0512186 12.056562
-2.7271414 1.0708215 12.058665
-2.724417 1.0893834 12.052308
-2.7234957 1.1082721 12.048607
-2.7249267 1.1275871 12.048369
-2.7222264 1.13933 12.048616
-2.7231944 1.1570692 12.047786
-2.7249804 1.172745 12.0638
-2.727051 1.1827477 12.060572
-2.7266071 1.2102134 12.056868
-2.7247908 1.2144789 12.073035
-2.7286792 1.2376387 12.063361
-2.7264249 1.2588153 12.058163
-2.717957 1.2772671 12.036422
-2.7240279 1.292468 12.043347
-2.7189925 1.3052477 12.03651
-2.7277775 1.3253814 12.054299
-2.7202089 1.3332398 12.036843
-2.7298386 1.347571 12.06568
-2.732981 1.3655688 12.074441
-2.7300758 1.3892173 12.080379
-2.7233226 1.4031481 12.040893
-2.7248437 1.4228634 12.056596
-2.7263522 1.4425853 12.072289
-2.7260149 1.4633064 12.086571
-2.7314596 0.53486967 12.214853
-2.73083 0.56158423 12.235945
-2.7306612 0.58211046 12.230937
-2.7302675 0.60259473 12.225752
-2.7327418 0.61734086 12.196367
-2.7294152 0.62299317 12.220205
-2.7299204 0.63737112 12.189267
-2.7295651 0.65786254 12.184113
-2.7244895 0.67747128 12.175236
-2.7257576 0.69155347 12.150473
-2.7143781 0.70806903 12.153945
-2.7136893 0.72354811 12.148767
-2.7133815 0.73915309 12.144041
-2.7131441 0.75478125 12.1394
-2.712919 0.77041346 12.134773
-2.7130706 0.78617018 12.130594
-2.7122726 0.80161321 12.125286
-2.7077956 0.82382071 12.11225
-2.7056005 0.84309363 12.105813
-2.7063692 0.86306626 12.103286
-2.7168169 0.87288952 12.099455
-2.7082374 0.8832984 12.102209
-2.709173 0.90331036 12.099901
-2.7095904 0.92320007 12.09691
-2.709739 0.94302624 12.093565
-2.7095988 0.96278435 12.089839
-2.7109482 0.97680426 12.080638
-2.7087924 0.99546921 12.075118
-2.7144177 1.0035042 12.089113
-2.7071934 1.014235 12.070417
-2.7074006 1.0333282 12.068378
-2.7073324 1.0523715 12.065933
-2.711185 1.0721254 12.069263
-2.7075961 1.0905306 12.061632
-2.7070718 1.1094912 12.058516
-2.7082164 1.1287544 12.057858
-2.707623 1.1405835 12.058546
-2.7101316 1.1481571 12.058333
-2.7120111 1.1675534 12.058758
-2.7036927 1.1843954 12.075407
-2.7033989 1.2118855 12.07192
-2.7088451 1.2169931 12.074458
-2.7096093 1.2385632 12.073633
-2.7116227 1.2757534 12.057422
-2.7090182 1.289017 12.055631
-2.7100282 1.2986729 12.062313
-2.7114825 1.3206424 12.07044
-2.7128003 1.3426543 12.078422
-2.6962562 1.3618428 12.050106
-2.7127118 1.3746358 12.11499
-2.7191722 1.3855141 12.098351
-2.7149434 1.4082996 12.077167
-2.714654 1.4289947 12.091486
-2.7143183 1.4497148 12.105769
-2.713815 1.4705254 12.119925
-2.7246377 1.4845899 12.100059
-2.7112172 0.64035779 12.179745
-2.7120929 0.65900469 12.175016
-2.7115827 0.67713702 12.168653
-2.7100871 0.69490337 12.161124
-2.7102647 0.71329105 12.155572
-2.7017689 0.726538 12.15954
-2.7015495 0.74217218 12.15492
-2.7011704 0.75775355 12.15011
-2.7008572 0.77335668 12.145378
-2.7009048 0.78907901 12.141076
-2.7002213 0.80455995 12.135904
-2.6933904 0.82634199 12.12634
-2.69102 0.84557354 12.119672
-2.6920967 0.86561882 12.117551
-2.7010138 0.87665117 12.113546
-2.693588 0.88576204 12.115976
-2.6941924 0.9056958 12.113233
-2.6943727 0.92552954 12.109929
-2.6944542 0.94533992 12.106495
-2.6941557 0.96506059 12.10256
-2.6937475 0.97788268 12.089402
-2.6917794 0.99658161 12.084159
-2.6961641 1.0051169 12.098126
-2.6904333 1.0153933 12.079831
-2.6897962 1.0343335 12.076549
-2.689656 1.0533637 12.073997
-2.6956072 1.0734979 12.080419
-2.6898372 1.0915079 12.069575
-2.6887851 1.1103729 12.065681
-2.6905253 1.1297439 12.0659
-2.6915102 1.1415641 12.066316
-2.6932387 1.1594406 12.066572
-2.6869197 1.1746043 12.084458
-2.6952453 1.1848302 12.087266
-2.6970351 1.2157034 12.087081
-2.6874356 1.2176126 12.081341
-2.6957181 1.2462002 12.082577
-2.6941969 1.2500542 12.052583
-2.6948667 1.2780113 12.052175
-2.6949978 1.2935396 12.079797
-2.6947823 1.30592 12.050741
-2.6931534 1.3346568 12.111648
-2.6946301 1.3338243 12.049216
-2.702318 1.3585266 12.107316
-2.7070758 1.3794665 12.118949
-2.7067049 1.4020048 12.125139
-2.7037663 1.4149653 12.111302
-2.7037971 1.435487 12.125866
-2.7036464 1.456107 12.140291
-2.7033708 1.4767944 12.154621
-2.7137513 1.4910983 12.134417
-2.7025373 0.62798166 12.204412
-2.7006693 0.6456098 12.196445
-2.6990566 0.6633327 12.188778
-2.6985683 0.68147314 12.18244
-2.6954486 0.69863647 12.172995
-2.6953189 0.71691006 12.167079
-2.6893666 0.72936881 12.16974
-2.6899047 0.74525309 12.166021
-2.6901753 0.76104903 12.161984
-2.6898904 0.77666152 12.157287
-2.6894424 0.79222018 12.152394
-2.6876976 0.80735064 12.14596
-2.6788855 0.82883972 12.140299
-2.6752181 0.84776509 12.131919
-2.6757617 0.86768454 12.129095
-2.6838939 0.88000047 12.126093
-2.6769347 0.88775259 12.127101
-2.6771879 0.90760356 12.123894
-2.6771872 0.92739451 12.120351
-2.6769798 0.94713664 12.116536
-2.6766438 0.96684849 12.112552
-2.6721232 0.98050612 12.106189
-2.6759121 0.98646688 12.108045
-2.6785748 1.0068866 12.108016
-2.6756599 1.0169116 12.092172
-2.6738467 1.0356387 12.087156
-2.6736434 1.0546575 12.084512
-2.6792541 1.07473 12.090432
-2.6737859 1.0927947 12.080033
-2.6752582 1.1073912 12.078319
-2.6761432 1.1251154 12.077369
-2.6769865 1.1428319 12.076359
-2.6767678 1.1579295 12.088112
-2.679275 1.1645858 12.070149
-2.6781456 1.1856896 12.087057
-2.6780879 1.2132176 12.083915
-2.6750553 1.2231377 12.07502
-2.6804936 1.2433971 12.084671
-2.6753759 1.2510724 12.074137
-2.6737854 1.2788844 12.070658
-2.6794586 1.288565 12.09674
-2.6720054 1.3066843 12.06692
-2.6848514 1.3317299 12.11563
-2.6710148 1.3345348 12.064256
-2.6736803 1.3626199 12.066559
-2.6923273 1.3742456 12.136731
-2.6928358 1.3965098 12.143855
-2.6909368 1.4195242 12.148422
-2.6844172 0.630422 12.212172
-2.6865683 0.64954245 12.208949
-2.6759021 0.66390377 12.190594
-2.6827223 0.68475783 12.192883
-2.6763413 0.70071024 12.179588
-2.6768982 0.7192387 12.174483
-2.6687949 0.75951701 12.174236
-2.6771185 0.77937031 12.167047
-2.6717942 0.80194491 12.166679
-2.6619396 0.83076125 12.151037
-2.6694095 0.84268659 12.152807
-2.6664641 0.86250842 12.143814
-2.6635714 0.87072873 12.146107
-2.664794 0.89080846 12.144178
-2.6641679 0.91045177 12.139811
-2.6636074 0.93011063 12.13553
-2.6634493 0.94986445 12.13178
-2.6574049 0.96434861 12.119262
-2.6637025 0.96971536 12.128572
-2.6642911 0.98964542 12.125808
-2.6632924 1.0092008 12.120949
-2.6653769 1.029484 12.120157
-2.6634364 1.0368392 12.116457
-2.6613951 1.0541679 12.110757
-2.6616573 1.0720118 12.1083
-2.6654646 1.0906489 12.110838
-2.6597588 1.1084828 12.086966
-2.6614294 1.1281639 12.082365
-2.6638474 1.1473227 12.083386
-2.6662571 1.1552489 12.102271
-2.6654174 1.1663179 12.083178
-2.6645644 1.1857002 12.097245
-2.6652138 1.2164353 12.095475
-2.6632867 1.2468581 12.090124
-2.6626003 1.2615788 12.1057
-2.6622684 1.2841049 12.111931
-2.6719241 1.2951907 12.106479
-2.6646774 1.3057768 12.121071
-2.6672235 1.3274062 12.130357
-2.6705172 1.3488023 12.140436
-2.6757202 1.3696038 12.152541
-2.6770132 1.3916235 12.160498
-2.6750042 1.4146721 12.164948
-2.6723585 0.635113 12.227087
-2.6752291 0.65450054 12.224714
-2.6644833 0.66883236 12.206265
-2.670738 0.68947637 12.207888
-2.6659305 0.73787576 12.176414
-2.6514208 0.78353095 12.180947
-2.6536825 0.8049835 12.178062
-2.6536055 0.82570368 12.172435
-2.657629 0.84953481 12.141809
-2.6505294 0.86622888 12.157751
-2.6497803 0.88673848 12.151335
-2.6504974 0.90770739 12.146638
-2.6504831 0.92844713 12.141084
-2.644273 0.94854623 12.13457
-2.6444378 0.96636832 12.131976
-2.6445398 0.97111356 12.136386
-2.6445131 0.99089843 12.13281
-2.6461556 1.0110773 12.131435
-2.6484048 1.0313994 12.130861
-2.6475294 1.0382012 12.125031
-2.646069 1.0556598 12.120149
-2.6464274 1.0735252 12.117828
