# .PCD v0.7 - Point Cloud Data file format
VERSION 0.7
FIELDS x y z rgb
SIZE 4 4 4 4
TYPE F F F F
COUNT 1 1 1 1
WIDTH 1056
HEIGHT 1
VIEWPOINT 0 0 0 1 0 0 0
POINTS 1056
DATA ascii
-3.9617321 1.0525359 11.294106 1.3052895e-38
-5.0146379 0.34352481 12.897348 6.1767499e-39
-5.0161119 0.31475148 12.914613 6.3607824e-39
-5.016603 0.28633651 12.932437 6.0856346e-39
-5.0161119 0.25827995 12.95082 8.5716572e-39
-5.0146379 0.23058179 12.969762 1.0326262e-38
-4.6802597 0.63597411 12.2305 1.3568671e-38
-4.6804309 0.60802752 12.241949 8.7720037e-39
-4.6804881 0.58010757 12.253462 8.4003022e-39
-4.6804309 0.55221432 12.265039 1.1154571e-38
-4.6802597 0.52434778 12.276681 1.1615905e-38
-4.8446522 0.35413587 12.65188 6.085999e-39
-4.8463197 0.325344 12.666239 6.4540584e-39
-4.8471475 0.2968238 12.681097 6.8221165e-39
-4.847136 0.26857534 12.696456 6.5466086e-39
-4.8462853 0.24059857 12.712315 7.0065049e-39
-4.8238015 0.37058985 12.614817 8.6656633e-39
-4.8261042 0.34159237 12.628797 6.3622243e-39
-4.8275676 0.31286657 12.643276 7.5582382e-39
-4.8281918 0.28441247 12.658257 6.7302796e-39
-4.8279762 0.25623006 12.673737 6.54661e-39
-4.826921 0.22831939 12.689716 8.6689045e-39
-4.8250265 0.20068042 12.706197 8.4801833e-39
-4.8060675 0.35778308 12.591248 8.6656633e-39
-4.808166 0.32885164 12.60535 6.4540584e-39
-4.8094254 0.30019194 12.619951 6.8228409e-39
-4.809845 0.27180392 12.635053 6.6384455e-39
-4.8094254 0.24368761 12.650655 7.3760077e-39
-4.808166 0.21584302 12.666757 9.8656457e-39
-4.8060675 0.18827014 12.683358 8.4801833e-39
-4.7889423 0.34477907 12.567316 6.3629474e-39
-4.7908368 0.31591374 12.581539 7.282373e-39
-4.7918921 0.28732011 12.596263 6.6384455e-39
-4.7921076 0.25899819 12.611485 6.54661e-39
-4.7914834 0.23094796 12.62721 1.0693596e-38
-4.79002 0.20316945 12.643433 9.8656457e-39
-4.7877173 0.17566265 12.660156 7.4674803e-39
-4.774117 0.30277863 12.557366 6.8228409e-39
-4.7749681 0.2742511 12.572211 5.9016063e-39
-4.7749791 0.24599525 12.587556 7.9280983e-39
-4.7741513 0.21801111 12.603401 9.8656457e-39
-4.7724838 0.19029869 12.619746 7.9302521e-39
-4.0620165 0.086942568 11.498916 1.8272751e-38
-4.0624542 0.075363487 11.507486 1.7444079e-38
-4.0628204 0.063840397 11.516127 1.7444079e-38
-4.0513668 0.092092916 11.482319 1.7721021e-38
-4.0514736 0.080773145 11.491213 1.8915958e-38
-4.0515094 0.069509365 11.500177 1.8548616e-38
-4.0514736 0.058301579 11.509212 1.8548616e-38
-4.0513668 0.047149789 11.518315 1.8548616e-38
-4.0403032 0.075096145 11.484125 1.8548616e-38
-4.039937 0.064147674 11.493484 1.8548616e-38
-4.0394993 0.053255193 11.502911 1.8916317e-38
-3.386302 1.4046658 11.633839 4.6112515e-39
-3.3879206 1.3915988 11.639073 5.0729513e-39
-3.3890319 1.3783737 11.643518 7.3774749e-39
-3.3896351 1.3649907 11.647173 1.6224633e-38
-3.3897309 1.3514494 11.650037 1.6791541e-38
-3.3893192 1.3377501 11.652111 1.6883737e-38
-3.3883996 1.3238926 11.653395 1.6975931e-38
-3.3869724 1.309877 11.653889 1.6975931e-38
-3.3850374 1.2957034 11.653592 1.6975931e-38
-3.3748107 1.4061812 11.641413 4.5190544e-39
-3.376461 1.3931241 11.646697 5.0725925e-39
-3.3776035 1.3799089 11.651191 6.2711315e-39
-3.3782387 1.3665355 11.654895 1.6314299e-38
-3.378366 1.3530042 11.657808 1.6883737e-38
-3.3779857 1.3393147 11.659931 1.6975931e-38
-3.3770978 1.3254671 11.661264 1.6884095e-38
-3.3757024 1.3114613 11.661807 1.6884095e-38
-3.3737991 1.2972976 11.66156 1.6976289e-38
-3.3713882 1.2829757 11.660522 1.6976289e-38
-3.3610528 1.4205618 11.642744 4.4264973e-39
-3.3632424 1.4076726 11.648868 4.4264973e-39
-3.3649244 1.3946254 11.654201 5.0729513e-39
-3.3660986 1.38142 11.658744 5.8105149e-39
-3.3667655 1.3680565 11.662497 1.6404324e-38
-3.3669245 1.354535 11.66546 1.6883737e-38
-3.3665757 1.3408554 11.667632 1.6975931e-38
-3.3657196 1.3270177 11.669014 1.6884095e-38
-3.3643556 1.3130218 11.669606 1.6884095e-38
-3.3624837 1.2988678 11.669408 1.6884454e-38
-3.3601046 1.2845557 11.66842 1.697665e-38
-3.3493764 1.4220196 11.65003 4.4264959e-39
-3.3515975 1.4091402 11.656202 4.4264959e-39
-3.3533113 1.3961028 11.661585 5.0729513e-39
-3.3545172 1.3829073 11.666178 5.8105149e-39
-3.3552153 1.3695537 11.66998 1.6404324e-38
-3.355406 1.356042 11.672992 1.6791901e-38
-3.3550889 1.3423722 11.675214 1.6791901e-38
-3.3542643 1.3285443 11.676645 1.6884454e-38
-3.352932 1.3145583 11.677286 1.6884454e-38
-3.3510919 1.3004141 11.677137 1.6976289e-38
-3.3487442 1.286112 11.676198 1.7068485e-38
-3.3376234 1.4234535 11.657196 3.3186994e-39
-3.3398762 1.410584 11.663419 4.4264959e-39
-3.3416212 1.3975564 11.66885 5.0729513e-39
-3.3428588 1.3843707 11.673491 5.8105149e-39
-3.3435886 1.371027 11.677343 1.6403603e-38
-3.3438108 1.3575251 11.680405 1.6791901e-38
-3.3435254 1.343865 11.682675 1.6791901e-38
-3.3427324 1.330047 11.684155 1.6791901e-38
-3.3414316 1.3160708 11.684846 1.6884455e-38
-3.3396232 1.3019366 11.684747 1.6976289e-38
-3.3373072 1.2876441 11.683857 1.7068485e-38
-3.3257933 1.4248633 11.664244 3.2265009e-39
-3.3280778 1.4120038 11.670515 4.057349e-39
-3.3298545 1.398986 11.675996 4.9807542e-39
-3.3311236 1.3858101 11.680687 5.4417324e-39
-3.3318851 1.3724762 11.684587 1.6402154e-38
-3.332139 1.3589842 11.687697 1.679226e-38
-3.3318851 1.3453341 11.690018 1.6884095e-38
-3.3311236 1.3315259 11.691547 1.6884095e-38
-3.3298545 1.3175596 11.692287 1.6884455e-38
-3.3280778 1.3034351 11.692237 1.6884095e-38
-3.3257933 1.2891526 11.691396 1.697665e-38
-3.3138866 1.4262494 11.671171 3.410895e-39
-3.3162026 1.4133996 11.677492 4.1495446e-39
-3.318011 1.4003917 11.683022 4.9807542e-39
-3.3193119 1.3872257 11.687762 5.0729513e-39
-3.3201051 1.3739017 11.691711 1.6216312e-38
-3.3203905 1.3604195 11.694871 1.6700066e-38
-3.3201683 1.3467792 11.697241 1.6792618e-38
-3.3194382 1.3329809 11.698819 1.6792618e-38
-3.3182008 1.3190243 11.699609 1.6884455e-38
-3.3164556 1.3049097 11.699607 1.6884095e-38
-3.3142028 1.2906371 11.698815 1.697665e-38
-3.3019032 1.4276115 11.677979 3.3186994e-39
-3.304251 1.4147716 11.684349 3.9647932e-39
-3.3060908 1.4017736 11.689928 4.7960014e-39
-3.3074234 1.3886174 11.694717 4.88856e-39
-3.308248 1.3753031 11.698716 1.5937556e-38
-3.3085651 1.3618308 11.701925 1.6700066e-38
-3.3083744 1.3482004 11.704344 1.6884455e-38
-3.3076761 1.3344119 11.705972 1.6884455e-38
-3.3064702 1.3204652 11.70681 1.6884454e-38
-3.3047566 1.3063605 11.706858 1.6884454e-38
-3.3025355 1.2920977 11.706116 1.6976648e-38
-3.2898431 1.4289498 11.684669 3.4108964e-39
-3.2922225 1.4161197 11.691087 4.426856e-39
-3.2940941 1.4031315 11.696715 4.8885628e-39
-3.2954581 1.3899852 11.701554 4.796363e-39
-3.2963142 1.3766809 11.705603 1.5753161e-38
-3.296663 1.3632183 11.70886 1.6700067e-38
-3.296504 1.3495977 11.711328 1.6700067e-38
-3.2958374 1.335819 11.713005 1.679226e-38
-3.294663 1.3218822 11.713893 1.6884454e-38
-3.2929811 1.3077873 11.713989 1.6884455e-38
-3.2907915 1.2935344 11.713297 1.697665e-38
-3.2777061 1.4302641 11.691237 3.4108964e-39
-3.280117 1.4174439 11.697705 4.3343002e-39
-3.2820203 1.4044656 11.703383 4.980757e-39
-3.283416 1.3913291 11.708271 4.7038072e-39
-3.2843039 1.3780346 11.712368 1.5474765e-38
-3.2846842 1.3645819 11.715675 1.6608231e-38
-3.2845569 1.3509711 11.718192 1.6608231e-38
-3.2839217 1.3372023 11.719919 1.6884095e-38
-3.282779 1.3232753 11.720856 1.6884454e-38
-3.2811286 1.3091903 11.721002 1.6884455e-38
-3.267935 1.4187442 11.704205 4.1491831e-39
-3.26987 1.4057757 11.709931 4.980757e-39
-3.2712972 1.3926491 11.714869 4.7038072e-39
-3.2722168 1.3793644 11.719015 1.5474765e-38
-3.2726285 1.3659216 11.722371 1.6607871e-38
-3.2725327 1.3523207 11.724937 1.6607871e-38
-3.2719293 1.3385617 11.726713 1.6884095e-38
-3.2708182 1.3246446 11.727699 1.6884097e-38
-3.2691996 1.3105694 11.727895 1.6884455e-38
-5.1093893 1.4548182 12.892195 8.8587497e-39
-5.1099305 1.4170899 12.883355 8.8576622e-39
-5.0888348 1.499835 12.86866 8.6729094e-39
-5.0888104 1.4620293 12.860164 8.9509453e-39
-5.0892487 1.4242868 12.851387 8.8576622e-39
-5.0683961 1.5070653 12.836543 8.8576608e-39
-5.0682688 1.4692454 12.828111 8.7651051e-39
-5.068603 1.4314889 12.819397 9.1356981e-39
-5.0479946 1.5143006 12.804405 8.8587497e-39
-5.0477638 1.4764667 12.796035 8.8583867e-39
-5.0479946 1.4386959 12.787384 9.1356981e-39
-5.0276299 1.521541 12.772244 8.8587497e-39
-5.0272956 1.4836929 12.763937 8.7651009e-39
-5.0274229 1.445908 12.755349 8.9513068e-39
-5.0073018 1.5287864 12.740061 8.8565734e-39
-5.0068641 1.4909241 12.731816 8.3970372e-39
-5.0068879 1.453125 12.723291 8.8583867e-39
-4.9870105 1.5360368 12.707855 8.8565734e-39
-4.9864693 1.4981604 12.699674 8.3970372e-39
-4.5786424 0.98430532 11.967412 1.8071806e-38
-4.5786996 0.96004665 11.971297 1.1997379e-38
-4.5658569 1.0052112 11.942781 1.144962e-38
-4.5661197 0.98093247 11.946543 1.8071806e-38
-4.5661898 0.95667261 11.95042 1.2181766e-38
-4.5660677 0.9324314 11.954414 1.1996291e-38
-4.5532002 1.0018514 11.921994 1.163329e-38
-4.5534759 0.97757149 11.925748 1.7240975e-38
-4.5535588 0.95331025 11.929617 1.2181766e-38
-4.5534496 0.92906785 11.933603 1.1996291e-38
-4.5531483 0.90484416 11.937705 1.2916802e-38
-4.5404224 0.99850339 11.901279 1.163329e-38
-4.5407109 0.97422218 11.905025 1.7240975e-38
-4.5408072 0.94995975 11.908887 1.2181766e-38
-4.5407109 0.92571604 11.912865 1.1996291e-38
-4.5404224 0.90149117 11.916959 1.2916802e-38
-4.527524 0.9951672 11.880637 1.163329e-38
-4.5278254 0.97088474 11.884376 1.7240975e-38
-4.5279346 0.946621 11.888229 1.2181766e-38
-4.5278516 0.9223761 11.8922 1.2916443e-38
-4.527576 0.89814991 11.896286 1.2457267e-38
-4.5148191 0.96755904 11.863799 1.4391935e-38
-4.5149412 0.94329405 11.867645 1.4388322e-38
-4.5148711 0.91904789 11.871607 1.2916443e-38
-4.5146084 0.89482039 11.875686 1.2549106e-38
-4.5018268 0.9399789 11.847134 1.4388322e-38
-4.5017695 0.91573143 11.851088 1.2916443e-38
-2.8598557 0.36138204 12.043408 5.449682e-39
-2.8581269 0.33365312 12.060683 5.4475156e-39
-2.8578775 0.30631274 12.078547 5.0765624e-39
-2.8591075 0.27936092 12.097001 4.2471731e-39
-2.8618166 0.25279763 12.116046 3.8813053e-39
-2.8505151 0.43338522 12.033981 6.0957702e-39
-2.8470621 0.40520337 12.050569 5.1716475e-39
-2.8450882 0.37741008 12.067744 5.0776498e-39
-2.8445938 0.3500053 12.085511 4.707424e-39
-2.8455787 0.32298911 12.103868 5.0733184e-39
-2.8480427 0.29636142 12.122814 5.8126883e-39
-2.8519859 0.27012229 12.14235 1.8135156e-38
-2.8374407 0.47713271 12.041029 5.5415147e-39
-2.8337424 0.44888645 12.057518 5.0798148e-39
-2.8315234 0.42102879 12.074596 4.9858171e-39
-2.8307838 0.39355963 12.092265 4.7988951e-39
-2.8315234 0.36647904 12.110524 5.7230192e-39
-2.8337424 0.33978698 12.129373 7.2940612e-39
-2.8374407 0.31348345 12.148811 9.2441712e-39
-2.8238397 0.52074194 12.047866 5.3571248e-39
-2.8198965 0.49243131 12.064258 4.6159528e-39
-2.8174324 0.46450925 12.081238 4.6155927e-39
-2.8164475 0.43697572 12.098809 4.6152297e-39
-2.816942 0.40983072 12.11697 9.4072473e-39
-2.8189158 0.38307428 12.135721 1.4012309e-38
-2.8223689 0.35670638 12.155062 2.1473624e-38
-2.8055241 0.53583795 12.070786 4.5230341e-39
-2.802815 0.50785148 12.08767 4.5241201e-39
-2.801585 0.48025358 12.105144 4.6163186e-39
-2.8018343 0.45304421 12.123206 1.4567721e-38
-2.8035629 0.42622337 12.14186 1.8267006e-38
-2.8998551 1.0916688 11.940835 1.8361358e-38
-2.899893 1.0702806 11.943235 1.8729776e-38
-2.8999195 1.0488904 11.945618 1.8913806e-38
-2.8999343 1.0274984 11.947984 2.1672458e-38
-2.8999372 1.0061045 11.950333 1.86383e-38
-2.8999286 0.98470867 11.952664 1.9374777e-38
-2.8999083 0.96331108 11.954979 1.9834672e-38
-2.8998764 0.94191158 11.957277 2.0110537e-38
-2.8998327 0.92051023 11.959558 2.0845939e-38
-2.8997774 0.89910704 11.961822 2.1948323e-38
-2.8997102 0.877702 11.964068 2.2499336e-38
-2.8823838 1.0930392 11.953341 1.8545747e-38
-2.8824246 1.0716513 11.955745 1.8637582e-38
-2.8824539 1.0502616 11.958132 1.9098194e-38
-2.8824716 1.02887 11.960502 2.1396952e-38
-2.8824775 1.0074766 11.962854 1.8822329e-38
-2.8824718 0.9860813 11.965191 1.9374777e-38
-2.8824544 0.96468419 11.96751 1.9834672e-38
-2.8824253 0.94328517 11.969811 2.0110537e-38
-2.8823845 0.9218843 11.972096 2.0386403e-38
-2.8823321 0.90048152 11.974365 2.0754103e-38
-2.882268 0.8790769 11.976616 2.1948323e-38
-2.8648415 1.0943981 11.965743 1.8361358e-38
-2.8648853 1.0730108 11.968151 1.8453552e-38
-2.8649175 1.0516216 11.970542 1.9190389e-38
-2.864938 1.0302304 11.972917 2.1947965e-38
-2.8649468 1.0088375 11.975273 1.9282583e-38
-2.864944 0.98744261 11.977613 1.8269881e-38
-2.8649294 0.96604598 11.979938 1.9650642e-38
-2.8649032 0.94464737 11.982244 1.9742837e-38
-2.8648653 0.92324698 11.984532 2.1121445e-38
-2.864816 0.90184468 11.986805 2.1580981e-38
-2.8647547 0.88044053 11.98906 2.1948323e-38
-2.8472283 1.0957458 11.978042 1.8268805e-38
-2.847275 1.0743589 11.980453 1.8361358e-38
-2.8473101 1.0529702 11.982849 1.9282224e-38
-2.8473334 1.0315795 11.985228 2.1947965e-38
-2.8473451 1.010187 11.987589 1.9466254e-38
-2.8473454 0.98879266 11.989934 1.8453911e-38
-2.8473337 0.96739638 11.992261 1.9650642e-38
-2.8473103 0.94599831 11.994572 1.9742837e-38
-2.8472753 0.92459834 11.996865 2.1213281e-38
-2.8472288 0.90319651 11.999142 2.1580981e-38
-2.8471704 0.88179284 12.001401 2.1948323e-38
-2.8295441 1.0970821 11.990236 1.8545388e-38
-2.8295937 1.0756958 11.992653 1.8729776e-38
-2.8296318 1.0543075 11.995053 1.8822329e-38
-2.829658 1.0329173 11.997436 2.1764294e-38
-2.8296726 1.0115252 11.999802 2.0937416e-38
-2.8296757 0.99013132 12.00215 2.0477879e-38
-2.8296669 0.96873552 12.004481 1.9278987e-38
-2.8296463 0.94733793 12.006797 1.8908775e-38
-2.8296144 0.92593843 12.009094 2.0937774e-38
-2.8295705 0.90453708 12.011374 2.1672817e-38
-2.8295152 0.88313383 12.013638 2.2315665e-38
-2.811789 1.0984073 12.002329 1.8821253e-38
-2.8118415 1.0770212 12.004749 1.9373701e-38
-2.8118825 1.0556334 12.007154 1.9006359e-38
-2.8119116 1.0342437 12.009541 2.1856129e-38
-2.8119292 1.0128521 12.01191 2.1948323e-38
-2.8119349 0.99145865 12.014263 2.1948323e-38
-2.8119292 0.97006333 12.016599 1.9181031e-38
-2.8119116 0.94866616 12.018918 1.9183201e-38
-2.8118825 0.92726713 12.02122 2.1121445e-38
-2.8118415 0.90586627 12.023504 2.222383e-38
-2.811789 0.88446349 12.025772 2.2315665e-38
-2.793963 1.099721 12.014318 8.5152199e-39
-2.7940183 1.0783354 12.016743 8.8839954e-39
-2.7940621 1.0569481 12.019151 1.0080725e-38
-2.7940943 1.0355588 12.021542 1.2196529e-38
-2.7941146 1.0141677 12.023916 1.9007075e-38
-2.7941234 0.99277467 12.026273 2.1948323e-38
-2.7941203 0.97137982 12.028613 1.8257642e-38
-2.7941058 0.94998312 12.030936 1.3475402e-38
-2.7940795 0.92858458 12.033242 2.0201654e-38
-2.7940416 0.90718412 12.035531 2.2407501e-38
-2.7939918 0.88578182 12.037804 2.2315665e-38
-2.7760661 1.1010233 12.026203 8.3800493e-39
-2.7761242 1.0796382 12.028632 1.1411691e-38
-2.776171 1.0582514 12.031044 1.1412412e-38
-2.776206 1.0368626 12.03344 1.1873744e-38
-2.7762291 1.0154719 12.035818 1.539259e-38
-2.7762408 0.99407941 12.038179 1.9272496e-38
-2.7762408 0.97268498 12.040524 1.7888498e-38
-2.7762291 0.95128876 12.042851 1.3104114e-38
-2.7762058 0.92989063 12.045161 2.0201654e-38
-2.7761705 0.90849066 12.047455 2.2407501e-38
-2.7761238 0.88708884 12.049731 2.2315665e-38
-2.7580979 1.1023145 12.037985 6.8131187e-39
-2.7581592 1.0809298 12.040419 1.6269295e-38
-2.7582088 1.0595434 12.042835 1.2963579e-38
-2.7582467 1.038155 12.045235 1.1037194e-38
-2.7582729 1.0167649 12.047617 1.0396509e-38
-2.7582874 0.99537277 12.049982 7.3886909e-39
-2.7582903 0.97397888 12.052331 1.8350913e-38
-2.7582815 0.95258307 12.054663 1.4374e-38
-2.758261 0.93118542 12.056977 1.9087749e-38
-2.7582288 0.90978593 12.059275 2.1764652e-38
-2.7581849 0.88838452 12.061555 2.1856488e-38
-2.7400591 1.1035942 12.049664 7.0882637e-39
-2.7401233 1.0822101 12.052101 1.5167266e-38
-2.7401757 1.060824 12.054523 1.3514229e-38
-2.7402165 1.0394361 12.056926 1.186227e-38
-2.7402456 1.0180464 12.059313 1.0579822e-38
-2.740263 0.99665481 12.061683 7.203215e-39
-2.7402687 0.97526139 12.064035 1.9558805e-38
-2.7402627 0.95386606 12.066371 1.7996166e-38
-2.7402451 0.93246889 12.068689 2.0017623e-38
-2.7402158 0.91106981 12.070992 2.1672817e-38
-2.7401748 0.88966894 12.073277 2.1856488e-38
-2.7219491 1.1048626 12.061239 6.9045913e-39
-2.7220163 1.0834789 12.063681 1.507543e-38
-2.7220716 1.0620934 12.066106 1.5166908e-38
-2.7221153 1.0407059 12.068514 1.2137417e-38
-2.7221472 1.0193167 12.070905 1.0670937e-38
-2.7221675 0.99792558 12.073278 7.0188223e-39
-2.7221761 0.97653258 12.075636 2.00187e-38
-2.7221732 0.95513773 12.077975 2.0478238e-38
-2.7221584 0.93374097 12.080298 2.0662268e-38
-2.722132 0.91234243 12.082604 2.0937774e-38
-2.7220941 0.89094198 12.084893 2.1948323e-38
-4.0489888 0.010313947 11.559712 2.2590813e-38
-4.0325079 0.013896111 11.538618 2.1856488e-38
-4.0333815 0.0013600521 11.553101 2.1948323e-38
-4.0168839 0.0049651214 11.532023 2.1948323e-38
-4.0172114 -0.0068260138 11.547056 9.6151005e-39
-4.0168839 -0.017722681 11.56275 9.6151005e-39
-4.0004787 -0.014244251 11.541578 1.2837954e-38
-3.9996049 -0.024395993 11.557822 1.0324115e-38
-3.9831831 -0.02089466 11.536668 1.1612682e-38
-4.8309388 0.35938022 12.706978 6.3629474e-39
-4.8301339 0.32922697 12.723352 6.1781974e-39
-4.8300796 0.29881898 12.739239 5.7183039e-39
-4.8307757 0.26815617 12.754636 6.6380868e-39
-4.8096285 0.37737149 12.667256 7.836281e-39
-4.8079128 0.34752744 12.684225 6.455513e-39
-4.8069472 0.31742868 12.700705 6.7364551e-39
-4.8067327 0.28707513 12.716696 7.0054301e-39
-4.8072681 0.25646681 12.732198 7.006149e-39
-4.8085542 0.2256037 12.74721 8.4852363e-39
-4.7887855 0.36477777 12.643082 7.836281e-39
-4.7869091 0.33498821 12.660155 6.928426e-39
-4.7857833 0.30494386 12.67674 7.3771063e-39
-4.785408 0.27464476 12.692835 1.1152796e-38
-4.7857833 0.24409088 12.708441 7.37787e-39
-4.7869091 0.21328224 12.723558 6.4594997e-39
-4.7887855 0.18221883 12.738186 7.3752889e-39
-4.7679276 0.32176241 12.634768 6.7364551e-39
-4.7666416 0.29177254 12.651457 1.1156726e-38
-4.7661061 0.2615279 12.667656 8.8558378e-39
-4.7663207 0.23102848 12.683367 6.4623779e-39
-4.7672863 0.20027429 12.698588 9.5868896e-39
-4.769002 0.16926533 12.713321 8.8475309e-39
-4.7495222 0.2779147 12.624855 1.1152796e-38
-4.748826 0.24772452 12.64116 7.299026e-39
-4.7488809 0.21727955 12.656975 9.9578805e-39
-4.7496858 0.18657982 12.672301 9.5868896e-39
-2.8962512 1.306106 11.93212 1.7161035e-38
-2.8968596 1.289273 11.932597 1.7345427e-38
-2.8972673 1.2724465 11.932791 1.7437621e-38
-2.8974738 1.2556263 11.932701 1.7437979e-38
-2.8974793 1.2388126 11.932327 1.7530174e-38
-2.8972838 1.2220054 11.931671 1.7530174e-38
-2.8968873 1.2052045 11.930731 1.7622727e-38
-2.8962898 1.18841 11.929508 1.7530532e-38
-2.8954914 1.1716219 11.928001 1.7622727e-38
-2.8944919 1.1548404 11.926211 1.789967e-38
-2.8932915 1.1380652 11.924138 1.7991864e-38
-2.8816421 1.305914 11.940592 1.6976285e-38
-2.8823099 1.2890792 11.941152 1.7161035e-38
-2.8827765 1.2722507 11.941428 1.7345425e-38
-2.8830423 1.2554287 11.941422 1.7437621e-38
-2.8831072 1.238613 11.941133 1.7530174e-38
-2.8829708 1.2218039 11.940559 1.7530174e-38
-2.8826334 1.2050011 11.939703 1.7530532e-38
-2.8820953 1.1882048 11.938562 1.7530174e-38
-2.881356 1.1714149 11.93714 1.7530532e-38
-2.8804157 1.1546314 11.935433 1.7991864e-38
-2.8792744 1.1378542 11.933443 1.8084417e-38
-2.8671653 1.3057178 11.949248 1.6699338e-38
-2.8678923 1.2888811 11.949892 1.688409e-38
-2.8684182 1.2720507 11.950253 1.7253231e-38
-2.8687432 1.2552267 11.95033 1.7345784e-38
-2.8688672 1.2384093 11.950123 1.7437979e-38
-2.8687899 1.2215983 11.949634 1.7530532e-38
-2.8685119 1.2047936 11.94886 1.7622368e-38
-2.8680329 1.1879953 11.947803 1.7530532e-38
-2.8673527 1.1712035 11.946465 1.7530532e-38
-2.8664715 1.1544181 11.944841 1.7807475e-38
-2.8653896 1.1376392 11.942935 1.8084417e-38
-2.8528209 1.3055174 11.958092 1.6052884e-38
-2.8536069 1.2886788 11.958819 1.6329473e-38
-2.854192 1.2718465 11.959263 1.688373e-38
-2.8545761 1.2550206 11.959423 1.6976644e-38
-2.8547595 1.2382013 11.9593 1.7345784e-38
-2.8547416 1.2213883 11.958894 1.7622368e-38
-2.8545225 1.2045817 11.958204 1.7622727e-38
-2.8541026 1.1877817 11.957232 1.7438338e-38
-2.8534818 1.170988 11.955976 1.7346143e-38
-2.8526599 1.1542007 11.954435 1.771528e-38
-2.8516369 1.1374198 11.952613 1.8084058e-38
-2.8386085 1.3053128 11.967122 1.5683739e-38
-2.8394539 1.2884722 11.967933 1.5776295e-38
-2.8400981 1.271638 11.96846 1.6052886e-38
-2.8405416 1.2548103 11.968703 1.6145441e-38
-2.8407838 1.2379891 11.968664 1.706884e-38
-2.8408251 1.2211742 11.968341 1.7437979e-38
-2.8406656 1.2043657 11.967735 1.7438338e-38
-2.8403049 1.1875638 11.966846 1.7438338e-38
-2.8397431 1.1707681 11.965672 1.7346144e-38
-2.8389804 1.1539789 11.964216 1.7623085e-38
-2.8380165 1.1371962 11.962477 1.8084417e-38
-2.8245285 1.3051038 11.976338 1.4117851e-38
-2.825433 1.2882614 11.977233 1.4486272e-38
-2.8261366 1.2714254 11.977843 1.4578466e-38
-2.8266392 1.2545958 11.97817 1.5315312e-38
-2.8269405 1.2377726 11.978214 1.6053246e-38
-2.8270411 1.2209558 11.977975 1.6884809e-38
-2.8269405 1.2041456 11.977452 1.7437979e-38
-2.8266392 1.1873416 11.976646 1.7438338e-38
-2.8261366 1.1705441 11.975556 1.7346144e-38
-2.825433 1.153753 11.974184 1.7807474e-38
-2.8245285 1.1369684 11.972528 1.7991864e-38
-2.8105807 1.3048908 11.985742 1.3002455e-38
-2.8115444 1.2880464 11.986719 1.3279043e-38
-2.8123074 1.2712085 11.987412 1.3924774e-38
-2.8128691 1.254377 11.987823 1.5215517e-38
-2.8132298 1.2375519 11.987951 1.4853601e-38
-2.8133893 1.2207333 11.987795 1.7894244e-38
-2.8133481 1.2039211 11.987355 1.7438338e-38
-2.8131058 1.1871153 11.986633 1.7346144e-38
-2.8126624 1.1703159 11.985627 1.7807474e-38
-2.8120182 1.153523 11.984338 1.7991864e-38
-2.8111727 1.1367364 11.982765 1.8360999e-38
-2.7967653 1.3046734 11.995331 3.7019349e-39
-2.7977881 1.2878271 11.996391 3.6115455e-39
-2.7986102 1.2709874 11.997169 3.79702e-39
-2.7992311 1.254154 11.997663 4.2598086e-39
-2.7996509 1.237327 11.997874 1.4853601e-38
-2.7998698 1.2205064 11.997802 1.7894244e-38
-2.7998877 1.2036923 11.997445 1.7529814e-38
-2.7997046 1.1868846 11.996806 1.7438338e-38
-2.7993205 1.1700834 11.995884 1.8176252e-38
-2.7987354 1.1532886 11.994678 1.8084057e-38
-2.7979491 1.1365001 11.993189 1.8360999e-38
-2.783082 1.3044518 12.005106 3.9637072e-39
-2.7841642 1.2876037 12.00625 4.0555427e-39
-2.7850454 1.270762 12.007112 4.2395725e-39
-2.7857254 1.2539268 12.007689 4.2598086e-39
-2.7862046 1.2370979 12.007983 4.8144299e-39
-2.7864826 1.2202754 12.007995 5.0949727e-39
-2.7865596 1.2034595 12.007722 6.0209353e-39
-2.7864358 1.1866499 12.007166 7.4974905e-39
-2.7861109 1.1698467 12.006327 8.2379198e-39
-2.7855849 1.1530499 12.005204 8.422667e-39
-2.784858 1.1362597 12.003798 8.699607e-39
-2.769531 1.304226 12.015068 3.8718731e-39
-2.7706723 1.287376 12.016296 3.9640688e-39
-2.7716126 1.2705325 12.017241 4.2395725e-39
-2.772352 1.2536952 12.017901 4.4236064e-39
-2.7728903 1.2368646 12.018279 4.7909456e-39
-2.7732277 1.2200402 12.018373 5.066808e-39
-2.7733638 1.2032223 12.018185 5.3444823e-39
-2.7732992 1.1864108 12.017713 5.9916566e-39
-2.7730334 1.1696057 12.016956 7.2838345e-39
-2.7725666 1.1528071 12.015918 7.6529632e-39
-2.771899 1.1360149 12.014595 8.0217345e-39
-2.7561123 1.303996 12.025217 5.4330738e-39
-2.757313 1.2871441 12.026528 3.9640688e-39
-2.7583125 1.2702986 12.027556 4.0559057e-39
-2.7591109 1.2534596 12.0283 4.1484656e-39
-2.7597084 1.236627 12.028762 4.3328583e-39
-2.7601049 1.2198007 12.028939 4.6098067e-39
-2.7603004 1.202981 12.028833 4.703087e-39
-2.7602947 1.1861676 12.028445 4.7960071e-39
-2.7600882 1.1693606 12.027773 6.1785828e-39
-2.7596807 1.1525601 12.026817 6.7317565e-39
-2.7590721 1.135766 12.025578 7.2838401e-39
-4.081686 0.36287341 11.470543 1.670473e-38
-4.0787616 0.34278202 11.48774 1.7073868e-38
-4.076859 0.32229692 11.504403 1.6889838e-38
-4.0759783 0.3014181 11.520534 2.0754461e-38
-4.0761194 0.28014556 11.536132 1.92833e-38
-4.0772824 0.25847933 11.551196 1.89156e-38
-4.0679994 0.34946853 11.452394 1.7442286e-38
-4.0645165 0.32959211 11.469881 1.7073868e-38
-4.0620561 0.309322 11.486835 2.0754461e-38
-4.0606174 0.28865817 11.503258 1.946733e-38
-4.0602007 0.26760066 11.519146 2.0019061e-38
-4.0608058 0.24614939 11.534502 2.0019061e-38
-4.0624328 0.22430444 11.549324 2.0019061e-38
-4.0650816 0.20206578 11.563614 1.9099629e-38
-4.0551624 0.33573616 11.4338 1.7073868e-38
-4.0511217 0.31607476 11.451579 2.0846296e-38
-4.0481033 0.29601961 11.468825 1.946733e-38
-4.0461063 0.27557078 11.485538 2.0019061e-38
-4.0451317 0.25472826 11.501718 1.983539e-38
-4.0451789 0.23349199 11.517365 2.1121803e-38
-4.0462475 0.21186203 11.532478 2.1121803e-38
-4.0483384 0.18983836 11.547059 2.1121803e-38
-4.0514517 0.16742098 11.561106 2.1121804e-38
-4.0385771 0.30222991 11.432834 2.0754461e-38
-4.0350003 0.28238976 11.450371 2.0110896e-38
-4.0324454 0.26215592 11.467375 1.983539e-38
-4.0309129 0.24152838 11.483846 2.1213638e-38
-4.0304017 0.22050712 11.499784 2.1121803e-38
-4.0309129 0.19909215 11.515188 2.1121803e-38
-4.0324454 0.17728347 11.53006 2.0846297e-38
-4.0350003 0.15508108 11.544398 2.1121804e-38
-4.0385771 0.13248497 11.558204 2.1213639e-38
-4.0227475 0.26843244 11.431474 2.0019061e-38
-4.0196347 0.24841359 11.448769 2.1213638e-38
-4.0175438 0.22800103 11.46553 2.1121803e-38
-4.0164747 0.20719476 11.481759 1.9651719e-38
-4.0164275 0.18599479 11.497455 2.0846297e-38
-4.0174026 0.1644011 11.512618 2.0938133e-38
-4.0193992 0.14241371 11.527247 2.1121804e-38
-4.022418 0.1200326 11.541345 2.1213639e-38
-4.0264587 0.097257785 11.554908 2.1305475e-38
-4.0076737 0.23434378 11.429719 2.1213638e-38
-4.0050249 0.21414623 11.446772 1.9651719e-38
-4.0033979 0.19355494 11.463291 2.020309e-38
-4.0027928 0.17256996 11.479279 2.0846297e-38
-4.0032096 0.15119126 11.494733 2.158098e-38
-4.0046482 0.12941886 11.509653 2.1672817e-38
-4.0071087 0.10725275 11.524041 2.1580981e-38
-4.0105915 0.084692925 11.537895 2.1856488e-38
-3.9911706 0.17958765 11.444381 2.0846297e-38
-3.9900076 0.15881766 11.460659 2.1672816e-38
-3.9898663 0.13765396 11.476403 2.1672817e-38
-3.990747 0.11609655 11.491615 2.1580981e-38
-3.9926496 0.094145425 11.506294 1.2301633e-38
-3.9955742 0.071800597 11.52044 2.1672817e-38
-4.9787359 0.24995698 12.890923 8.2950731e-39
-4.9779835 0.22519198 12.908256 1.0509573e-38
-4.9763107 0.20080672 12.926152 9.3200235e-39
-4.958148 0.26254725 12.855495 6.8217535e-39
-4.9595289 0.23690227 12.87152 1.0509573e-38
-4.9599891 0.21163704 12.888109 9.5047749e-39
-4.9595289 0.18675157 12.905263 8.0224589e-39
-4.958148 0.16224587 12.92298 1.0317228e-38
-4.9403877 0.22382016 12.852077 6.4612807e-39
-4.9420609 0.19805472 12.867922 9.3200235e-39
-4.9428129 0.17266902 12.884333 7.4656796e-39
-4.102982 0.46865967 11.403982 1.5965742e-38
-4.1030288 0.44805977 11.408122 1.6150489e-38
-4.1030984 0.427434 11.412142 1.6242683e-38
-4.1031914 0.40678239 11.416039 1.6335595e-38
-4.1033072 0.38610491 11.419816 1.6244118e-38
-4.1034465 0.36540157 11.423471 1.6243759e-38
-4.0833788 0.50777793 11.385945 1.5873189e-38
-4.0833497 0.48726219 11.39048 1.6519266e-38
-4.083344 0.46672064 11.394894 1.6242683e-38
-4.0833616 0.44615319 11.399186 1.6335236e-38
-4.0834022 0.42555991 11.403358 1.6150848e-38
-4.0834661 0.40494075 11.407408 1.6244118e-38
-4.0835533 0.38429576 11.411337 1.6244118e-38
-4.083663 0.3636249 11.415145 1.5967894e-38
-4.0632224 0.52696562 11.375186 1.9835031e-38
-4.0631418 0.50650823 11.379994 1.9282942e-38
-4.0630836 0.48602498 11.384682 1.9191106e-38
-4.0630488 0.46551588 11.389247 1.8546463e-38
-4.0630374 0.44498092 11.393692 1.8270239e-38
-4.0630488 0.42442009 11.398016 1.7717433e-38
-4.0630836 0.40383342 11.402218 1.7441208e-38
-4.0631418 0.38322088 11.406299 1.7349373e-38
-4.0632224 0.36258247 11.410258 1.670473e-38
-4.042357 0.52639776 11.372524 2.0478956e-38
-4.0422468 0.5059728 11.377485 2.0019061e-38
-4.04216 0.48552206 11.382324 2.0019061e-38
-4.0420961 0.46504542 11.387042 1.9742837e-38
-4.0420556 0.44454291 11.391639 1.9742837e-38
-4.042038 0.42401457 11.396114 1.9558807e-38
-4.0420437 0.40346035 11.400469 1.928294e-38
-4.0420728 0.38288027 11.404702 1.8270597e-38
-4.0208344 0.52656412 11.373304 2.038712e-38
-4.0206952 0.5061717 11.378417 2.0846297e-38
-4.0205789 0.48575339 11.383409 2.0846297e-38
-4.0204864 0.46530923 11.388279 2.0938132e-38
-4.0204163 0.44483918 11.393027 2.0846296e-38
-4.02037 0.42434329 11.397655 2.0938132e-38
-4.1281681 0.36146903 11.381989 6.7313754e-39
-4.1322751 0.33189982 11.387745 7.2831072e-39
-4.1337481 0.30310059 11.395827 7.7596216e-39
-4.0945888 0.41520187 11.354138 1.614977e-38
-4.1038847 0.38411567 11.355309 9.7753684e-39
-4.1105466 0.3537994 11.358806 8.3005578e-39
-4.1145754 0.32425308 11.36463 8.484212e-39
-4.1159706 0.2954767 11.372782 8.0235519e-39
-4.1147318 0.2674703 11.383261 1.0603937e-38
-4.1108599 0.24023382 11.396068 1.0241344e-38
-4.1043539 0.21376729 11.411201 1.3742584e-38
-4.0754032 0.40798962 11.332337 1.6335595e-38
-4.0846205 0.3769263 11.333576 1.659776e-38
-4.0912046 0.3466329 11.337142 1.6959331e-38
-4.0951548 0.31710947 11.343036 1.456478e-38
-4.0964718 0.28835598 11.351256 9.3154132e-39
-4.0951548 0.26037243 11.361805 6.9331063e-39
-4.0912046 0.23315883 11.374681 1.373899e-38
-4.0846205 0.20671518 11.389884 1.4389027e-38
-4.0754032 0.18104146 11.407414 1.4303716e-38
-4.0636358 0.37024003 11.313364 1.6243759e-38
-4.0701418 0.33996952 11.316999 1.6244118e-38
-4.0740137 0.31046897 11.322962 1.456478e-38
-4.0752521 0.28173834 11.331252 1.3660164e-38
-4.0738573 0.25377768 11.341869 1.2178899e-38
-4.0698285 0.22658695 11.354815 1.4200679e-38
-4.0631666 0.20016618 11.370088 1.6518184e-38
-4.0538707 0.17451535 11.387687 1.6706524e-38
-4.0523119 0.27562383 11.312769 1.6795847e-38
-4.0508385 0.24768604 11.323456 1.7346138e-38
-4.0467315 0.2205182 11.33647 1.7251785e-38
-4.5031791 1.6424049 11.866658 3.7818481e-39
-4.4748893 1.6498282 11.83002 3.7807607e-39
-4.4443355 1.6530354 11.794609 4.0573462e-39
-5.564158 0.92674184 13.638116 1.1625343e-38
-5.565217 0.89349437 13.648532 1.2269992e-38
-5.5656772 0.8603611 13.65929 1.5045226e-38
-5.5450339 0.9505654 13.599445 1.153243e-38
-5.5465398 0.91723269 13.609606 1.171682e-38
-5.5474467 0.88401419 13.620109 1.2832552e-38
-5.5477552 0.85090989 13.630954 1.5321087e-38
-5.5474648 0.81791979 13.642142 1.6794051e-38
-5.5465755 0.78504395 13.653672 1.8080464e-38
-5.5255671 0.97445428 13.56097 1.1624264e-38
-5.5275197 0.94103634 13.570875 1.1900129e-38
-5.5288734 0.90773261 13.581122 1.2087403e-38
-5.5296288 0.87454307 13.591713 1.2832552e-38
-5.5297852 0.8414678 13.602645 1.5321087e-38
-5.5293427 0.80850667 13.61392 1.7897512e-38
-5.5283017 0.7756598 13.625537 2.1851426e-38
-5.5081568 0.96490532 13.532341 1.1624264e-38
-5.5099578 0.93151641 13.542333 1.1900129e-38
-5.5111599 0.89824164 13.552667 1.2087403e-38
-5.5117631 0.86508107 13.563344 1.5045226e-38
-5.5117674 0.83203477 13.574363 1.6323624e-38
-5.5111732 0.79910266 13.585725 1.9548287e-38
-5.5099802 0.76628476 13.597429 2.1851426e-38
-5.5081882 0.73358101 13.609475 1.8354164e-38
-5.4884515 0.98883969 13.494002 1.4017731e-38
-5.4906993 0.95536548 13.503738 1.1807934e-38
-5.4923482 0.92200553 13.513817 1.171682e-38
-5.4933982 0.88875979 13.524239 1.180973e-38
-5.4938493 0.85562819 13.535003 1.3007511e-38
-5.4937019 0.82261086 13.546108 1.6323624e-38
-5.4929557 0.78970772 13.557557 2.0651806e-38
-5.491611 0.75691879 13.569348 1.4773671e-38
-5.4896674 0.72424406 13.581481 2.1853615e-38
-5.4710984 0.97927999 13.465341 1.3373445e-38
-5.4731936 0.94583476 13.475163 1.2176359e-38
-5.4746909 0.91250378 13.48533 1.190157e-38
-5.4755888 0.879287 13.495837 1.1534571e-38
-5.4758883 0.84618443 13.506688 1.3746835e-38
-5.4755888 0.81319606 13.517881 1.6323624e-38
-5.4746909 0.7803219 13.529417 8.9570886e-39
-5.4731936 0.74756199 13.541294 1.4773671e-38
-5.4710984 0.71491623 13.553514 9.1544797e-39
-5.4536972 0.96972936 13.436706 1.24533e-38
-5.4556408 0.93631315 13.446616 1.2176359e-38
-5.4569855 0.90301114 13.456868 1.190157e-38
-5.4577317 0.86982334 13.467463 1.1534571e-38
-5.4578795 0.83674973 13.478401 1.3746835e-38
-5.457428 0.80379039 13.489681 8.5810431e-39
-5.456378 0.77094519 13.501304 1.0256441e-38
-5.4547291 0.73821425 13.513268 1.4773671e-38
-5.4524817 0.70559746 13.525576 9.5225265e-39
-5.4362483 0.96018785 13.408098 1.24533e-38
-5.4380398 0.92680061 13.418096 1.2084522e-38
-5.4392328 0.89352763 13.428435 1.180973e-38
-5.439827 0.86036879 13.439117 1.1695882e-38
-5.4398227 0.82732415 13.450142 1.1420014e-38
-5.4392195 0.79439378 13.461509 8.5810431e-39
-5.4380174 0.76157755 13.473218 1.0256441e-38
-5.4362168 0.72887558 13.48527 2.2674343e-38
-5.4203916 0.91729718 13.389603 1.2176719e-38
-5.4214325 0.88405317 13.400029 1.1899764e-38
-5.4218745 0.85092336 13.410798 1.1695882e-38
-5.4217181 0.81790769 13.421909 9.1266527e-39
-5.4209633 0.78500628 13.433363 8.9570886e-39
-5.4196091 0.75221908 13.445159 6.2805749e-39
-5.4176564 0.71954608 13.457297 2.2674343e-38
-5.4026952 0.90780288 13.361136 1.1810094e-38
-5.403584 0.87458783 13.371651 1.2983034e-38
-5.4038744 0.84148699 13.382506 1.1695882e-38
-5.4035664 0.80850035 13.393704 6.835241e-39
-5.4026589 0.77562791 13.405245 5.9135972e-39
-5.4011531 0.74286968 13.417128 1.1813687e-38
-5.3858266 0.83205974 13.354241 1.1348093e-38
-5.3853664 0.79910207 13.365526 6.2813498e-39
-5.3843074 0.7662586 13.377154 5.9135972e-39
-2.7632742 0.78382379 12.061186 2.2958514e-38
-2.7529778 0.83446968 12.060815 2.2683007e-38
-2.751785 0.81836921 12.063754 2.2774843e-38
-2.7508616 0.80235773 12.067015 2.2591172e-38
-2.7502074 0.78643513 12.070595 2.2866678e-38
-2.7498226 0.77060145 12.074496 2.3050708e-38
-2.749707 0.75485677 12.078717 2.3142544e-38
-2.7498608 0.73920095 12.08326 2.3142544e-38
-2.7397511 0.83702826 12.070034 2.2683007e-38
-2.7386417 0.82095534 12.073072 2.2774843e-38
-2.7378016 0.8049714 12.076432 2.2591172e-38
-2.7372308 0.78907633 12.080112 2.2866678e-38
-2.7369294 0.77327019 12.084112 2.3050708e-38
-2.7368972 0.75755304 12.088433 2.3142544e-38
-2.7371345 0.74192476 12.093074 2.3142544e-38
-2.7376411 0.72638541 12.098036 2.3142544e-38
-2.7279103 0.85575098 12.076543 2.2683007e-38
-2.726615 0.83961672 12.079361 2.2774843e-38
-2.7255888 0.82357132 12.082499 2.2866678e-38
-2.7248321 0.80761486 12.085958 2.2866678e-38
-2.7243447 0.79174733 12.089737 2.2958873e-38
-2.7241266 0.77596879 12.093836 2.3050708e-38
-2.7241781 0.76027912 12.098256 2.3050708e-38
-2.7244985 0.74467838 12.102996 2.3142544e-38
-2.7250884 0.72916663 12.108057 2.3142544e-38
-2.7259476 0.71374375 12.113439 2.3142544e-38
-2.7135689 0.84223497 12.088795 2.2499336e-38
-2.7126262 0.82621711 12.092032 2.2683007e-38
-2.7119529 0.81028819 12.095591 2.2774843e-38
-2.711549 0.79444826 12.099468 2.2866678e-38
-2.7114143 0.77869719 12.103667 2.2867037e-38
-2.711549 0.76303506 12.108187 2.2867037e-38
-2.7119529 0.74746192 12.113026 2.2867037e-38
-2.7126262 0.73197764 12.118186 2.2958873e-38
-2.7135689 0.7165823 12.123667 2.2958873e-38
-2.7006133 0.84488308 12.098337 2.2407501e-38
-2.6997542 0.82889277 12.101673 2.2683007e-38
-2.6991642 0.81299138 12.10533 2.2774843e-38
-2.6988437 0.79717898 12.109308 2.2866678e-38
-2.6987925 0.78145546 12.113606 2.2867037e-38
-2.6990104 0.76582086 12.118224 2.2775202e-38
-2.6994977 0.75027525 12.123163 2.2775202e-38
-2.7002544 0.73481852 12.128423 2.2775202e-38
-2.7012806 0.71945071 12.134003 2.2958873e-38
-2.7025759 0.7041719 12.139902 2.2683007e-38
-2.6869724 0.83159828 12.111423 2.2683007e-38
-2.6864657 0.81572443 12.115178 1.2386282e-38
-2.6862285 0.79993951 12.119255 1.2386282e-38
-2.6862607 0.78424352 12.123652 1.1833115e-38
-2.6865623 0.76863652 12.12837 1.0911171e-38
-2.6871331 0.7531184 12.133409 8.9775994e-39
-2.687973 0.73768926 12.138766 7.3159439e-39
-2.6890826 0.72234899 12.144445 5.5653311e-39
-2.6738579 0.81848729 12.125134 1.5971465e-38
-2.6737039 0.8027299 12.12931 1.2386282e-38
-2.6738195 0.78706151 12.133806 9.0362115e-39
-2.6742043 0.77148199 12.138623 8.3886827e-39
-2.6748586 0.7559914 12.143761 6.544068e-39
-2.675782 0.7405898 12.149219 5.4373772e-39
-2.6769748 0.72527707 12.154996 4.7001863e-39
-2.661937 0.77435732 12.148984 8.3886827e-39
-2.9566584 0.26223817 12.371715 5.0798134e-39
-2.9546087 0.23521933 12.363005 4.6170318e-39
-2.9533868 0.20865978 12.353243 4.3386429e-39
-2.9306674 0.29302663 12.3718 4.8910894e-39
-2.9286084 0.26600242 12.363103 4.6148668e-39
-2.9273767 0.23943749 12.353354 4.6141437e-39
-2.9269726 0.21333185 12.342554 5.5357343e-39
-2.9273961 0.18768547 12.330704 1.2522068e-38
-2.928647 0.16249838 12.317803 4.5266691e-39
-2.9067535 0.32496774 12.369249 5.0733184e-39
-2.9046848 0.29793817 12.360564 1.2341621e-38
-2.9034433 0.27136785 12.350827 4.2475318e-39
-2.9030297 0.24525683 12.34004 3.2456903e-39
-2.9034433 0.21960509 12.328202 6.7459209e-39
-2.9046848 0.19441262 12.315313 1.8991259e-38
-2.9067535 0.16967943 12.301374 2.2406421e-38
-2.882838 0.33102652 12.355388 9.2441712e-39
-2.881587 0.30445084 12.345664 1.0995501e-38
-2.8811636 0.27833444 12.334889 2.0016188e-38
-2.8815677 0.25267732 12.323063 1.898004e-38
-2.8827994 0.22747949 12.310187 2.286596e-38
-2.8848584 0.20274092 12.29626 2.2866318e-38
-2.8617687 0.28690222 12.315288 1.459072e-38
-2.8629906 0.26169899 12.302423 2.1580263e-38
-2.8650401 0.23695506 12.288508 2.2590812e-38
-3.3874633 1.0482893 11.630792 4.4286595e-39
-3.3870049 1.0317237 11.631303 4.0573462e-39
-3.3865969 1.0151646 11.631896 3.8744011e-39
-3.3862395 0.99861187 11.632573 1.0132847e-38
-3.3859324 0.9820655 11.633333 1.2554538e-38
-3.3856759 0.96552557 11.634177 1.9462292e-38
-3.3854697 0.94899201 11.635104 1.3394289e-38
-3.385314 0.93246484 11.636114 8.7863586e-39
-3.3852086 0.91594404 11.637207 1.3741894e-38
-3.3851538 0.89942968 11.638384 1.7343608e-38
-3.3851495 0.88292164 11.639644 2.1853258e-38
-3.3729494 1.0489011 11.638762 4.7048834e-39
-3.3725374 1.0323415 11.639348 4.1495432e-39
-3.3721757 1.0157882 11.640018 3.9665981e-39
-3.3718646 0.99924129 11.640772 9.8566241e-39
-3.3716037 0.98270077 11.641608 1.2370147e-38
-3.3713934 0.96616668 11.642529 1.5506871e-38
-3.3712335 0.94963896 11.643532 1.5311943e-38
-3.371124 0.93311769 11.644618 1.5221921e-38
-3.3710651 0.91660273 11.645788 2.0555228e-38
-3.3710566 0.90009427 11.647041 2.1577393e-38
-3.3710983 0.88359213 11.648377 2.2865961e-38
-3.3584602 1.049516 11.646771 4.9807472e-39
-3.3580942 1.0329622 11.647434 4.1495432e-39
-3.3577788 1.0164148 11.648181 4.0584322e-39
-3.3575139 0.99987376 11.649011 9.6729545e-39
-3.3572993 0.98333913 11.649924 1.2369786e-38
-3.3571353 0.96681094 11.65092 1.2830399e-38
-3.3570218 0.95028907 11.651999 1.5215931e-38
-3.3569586 0.93377364 11.653163 1.8728689e-38
-3.3569458 0.91726458 11.654409 2.3141825e-38
-3.3569837 0.90076196 11.655739 2.3141107e-38
-3.3570716 0.88426566 11.657151 2.3049991e-38
-3.3439951 1.0501341 11.654821 6.1774799e-39
-3.3436756 1.033586 11.655561 4.2410186e-39
-3.3434064 1.0170445 11.656384 4.1499062e-39
-3.3431878 1.0005094 11.65729 9.4889262e-39
-3.3430197 0.9839806 11.658279 1.2276868e-38
-3.3429019 0.96745825 11.659352 1.632481e-38
-3.3428345 0.95094228 11.660508 1.9737429e-38
-3.3428175 0.93443269 11.661748 2.3049631e-38
-3.3428512 0.91792953 11.663071 2.2958155e-38
-3.3429351 0.90143275 11.664476 2.3049991e-38
-3.3430696 0.88494235 11.665966 2.3049991e-38
-3.3295548 1.0507551 11.662912 6.5458995e-39
-3.3292813 1.0342131 11.663728 4.3332142e-39
-3.3290586 1.0176773 11.664627 4.2417417e-39
-3.3288863 1.0011481 11.66561 9.0290354e-39
-3.3287642 0.98462516 11.666676 1.2276508e-38
-3.3286927 0.96810865 11.667825 1.8173737e-38
-3.3286717 0.95159858 11.669058 2.0384966e-38
-3.328701 0.93509489 11.670373 2.2866318e-38
-3.3287809 0.91859758 11.671772 2.2958155e-38
-3.3289113 0.90210664 11.673255 2.3141825e-38
-3.329092 0.88562208 11.674821 2.3232944e-38
-3.3151388 1.0513793 11.671043 6.3618726e-39
-3.3149118 1.0348431 11.671935 4.2413801e-39
-3.3147352 1.0183133 11.672912 4.3339373e-39
-3.3146091 1.0017899 11.67397 8.9375601e-39
-3.3145335 0.98527282 11.675113 1.2368341e-38
-3.3145082 0.96876222 11.676338 1.9739964e-38
-3.3145335 0.95225799 11.677647 2.1304399e-38
-3.3146091 0.93576014 11.679039 2.286632e-38
-3.3147352 0.91926867 11.680514 2.2958155e-38
-3.3149118 0.90278363 11.682074 2.3049991e-38
-3.3151388 0.88630497 11.683716 2.3141826e-38
-3.3007472 1.0520066 11.679214 7.2823814e-39
-3.3005664 1.0354763 11.680183 4.3335758e-39
-3.3004363 1.0189524 11.681235 4.4257728e-39
-3.3003564 1.0024347 11.682371 8.8457246e-39
-3.3003271 0.98592365 11.68359 1.2460174e-38
-3.300348 0.96941888 11.684892 1.9833595e-38
-3.3004196 0.9529205 11.686277 2.0385685e-38
-3.3005416 0.93642849 11.687745 2.1764294e-38
-3.300714 0.91994292 11.689298 2.20398e-38
-3.3009367 0.90346372 11.690932 2.2407142e-38
-3.3012099 0.8869909 11.692651 2.3050349e-38
-3.2863803 1.052637 11.687427 8.1103274e-39
-3.2862458 1.0361125 11.688472 4.6105326e-39
-3.2861617 1.0195944 11.6896 5.0722296e-39
-3.2861283 1.0030828 11.690812 8.7538919e-39
-3.2861452 0.98657751 11.692107 1.2459809e-38
-3.2862124 0.97007859 11.693485 1.9833596e-38
-3.2863302 0.9535861 11.694947 2.010982e-38
-3.2864985 0.93709999 11.696492 2.1029251e-38
-3.2867172 0.92062026 11.69812 2.1488787e-38
-3.2869861 0.90414691 11.699832 2.1947965e-38
-3.2873058 0.88767999 11.701627 2.2958514e-38
-3.2720377 1.0532706 11.695679 8.0184919e-39
-3.2719495 1.036752 11.6968 4.5186957e-39
-3.2719119 1.0202397 11.698005 4.611613e-39
-3.2719245 1.0037339 11.699293 8.2943585e-39
-3.2719877 0.98723447 11.700665 1.236653e-38
-3.2721012 0.97074145 11.70212 1.9833236e-38
-3.2722654 0.95425481 11.703658 2.0477879e-38
-3.2724798 0.93777454 11.705279 2.1580623e-38
-3.2727447 0.92130071 11.706985 2.1488787e-38
-3.2730601 0.90483326 11.708772 2.1672458e-38
-3.2734261 0.88837218 11.710644 2.2958514e-38
-3.2577195 1.0539072 11.703971 8.1106917e-39
-3.2576776 1.0373944 11.70517 4.3339373e-39
-3.2576861 1.0208881 11.70645 4.3339373e-39
-3.2577453 1.0043881 11.707815 7.8344649e-39
-3.2578547 0.98789454 11.709263 1.2456914e-38
-3.2580147 0.97140735 11.710794 1.9465178e-38
-3.258225 0.95492661 11.712409 2.029385e-38
-3.2584858 0.93845224 11.714107 2.1305116e-38
-3.2587969 0.92198426 11.715888 2.1213281e-38
-3.2591586 0.90552264 11.717752 2.1488787e-38
-3.2595706 0.88906747 11.7197 2.2958514e-38
-3.2434258 1.0545468 11.712304 8.2028873e-39
-3.2434304 1.03804 11.713579 4.3339387e-39
-3.2434852 1.0215396 11.714936 4.3342974e-39
-3.2435904 1.0050454 11.716377 7.4664069e-39
-3.2437463 0.98855776 11.717902 1.2456188e-38
-3.2439523 0.97207642 11.71951 1.9281507e-38
-3.2442091 0.95560151 11.721201 2.0110537e-38
-3.2445159 0.93913299 11.722975 2.0753745e-38
-3.2448735 0.9226709 11.724833 2.0753745e-38
-3.2452815 0.90621513 11.726773 2.0937774e-38
-3.2457399 0.8897658 11.728797 2.2866678e-38
-4.0458822 1.4641428 11.194172 2.8577198e-39
-4.0458665 1.4514176 11.18755 2.8577198e-39
-4.0458641 1.438001 11.183552 2.9499154e-39
-4.0318766 1.4648031 11.191666 2.8577184e-39
-4.0318651 1.4518481 11.185916 2.8577184e-39
-4.0318675 1.4382017 11.182791 2.8580785e-39
-4.0318837 1.4238639 11.182289 2.8580785e-39
-4.0178766 1.4651645 11.190294 2.8573569e-39
-4.0178699 1.4519796 11.185417 2.8573569e-39
-4.0178766 1.4381033 11.183164 2.8577184e-39
-4.0038991 1.4779501 11.196687 2.7651612e-39
-4.0038829 1.4652268 11.190058 2.7651626e-39
-4.0038805 1.451812 11.186053 2.7651626e-39
-4.0038919 1.437706 11.184672 2.8573583e-39
-3.9898951 1.46499 11.190956 2.7651626e-39
-3.9898973 1.4513454 11.187824 2.7651626e-39
-3.9899132 1.4370095 11.187315 2.8573583e-39
-3.2510653 0.38962519 12.456371 5.7255486e-39
-3.2523451 0.37050897 12.451591 5.7255472e-39
-3.253125 0.351845 12.445732 5.6333501e-39
-3.2534049 0.3336333 12.438797 5.6329914e-39
-3.2531846 0.31587386 12.430783 5.6333501e-39
-3.2524641 0.2985667 12.421693 5.6333501e-39
-3.2339201 0.38597128 12.465076 5.7259087e-39
-3.2351704 0.36688191 12.460232 5.7259073e-39
-3.2359204 0.34824482 12.454309 5.7259087e-39
-3.2361705 0.33005998 12.447309 5.6333515e-39
-3.2359204 0.31232741 12.439232 5.5415147e-39
-3.2351704 0.29504713 12.430078 5.5411559e-39
-3.2339201 0.27821913 12.419846 5.6333501e-39
-3.2166526 0.36446926 12.46598 5.7259073e-39
-3.2173731 0.34585902 12.459992 5.7259087e-39
-3.2175934 0.32770106 12.452929 5.6337131e-39
-3.2173135 0.30999538 12.444788 5.7255486e-39
-3.2165337 0.29274195 12.435569 5.6329914e-39
-3.2152538 0.27594084 12.425273 5.6333501e-39
-4.3276515 0.078001499 11.908452 1.8075409e-38
-4.3077259 0.081144594 11.869987 1.8075409e-38
-4.2852349 0.082222499 11.832845 1.8075409e-38
-4.8673062 0.60616332 12.628754 6.3618628e-39
-4.8666468 0.57851803 12.644158 7.3799678e-39
-4.8667188 0.55064106 12.659132 6.0935926e-39
-4.8675222 0.5225324 12.673676 5.1647742e-39
-4.8690577 0.49419206 12.687791 5.9016133e-39
-4.849709 0.62153721 12.590588 6.3597034e-39
-4.8480988 0.59419292 12.60655 5.9956054e-39
-4.8472199 0.56661695 12.622083 6.1847008e-39
-4.8470731 0.53880936 12.637185 4.9847185e-39
-4.8476577 0.51077002 12.651857 5.349164e-39
-4.8489742 0.48249897 12.666101 5.9016133e-39
-4.8510227 0.45399624 12.679914 5.9016133e-39
-4.8346691 0.63610137 12.55092 7.5582662e-39
-4.832108 0.60905808 12.56744 6.3618628e-39
-4.8302789 0.58178312 12.58353 5.9092112e-39
-4.8291812 0.55427647 12.599192 6.1847008e-39
-4.8288155 0.52653813 12.614423 9.9491995e-39
-4.8291812 0.49856812 12.629224 1.0405144e-38
-4.8302789 0.47036642 12.643596 6.1774785e-39
-4.832108 0.44193301 12.657537 5.6257481e-39
-4.8346691 0.41326794 12.67105 5.5335497e-39
-4.8158951 0.59613949 12.543477 5.5415231e-39
-4.8138471 0.56893378 12.559696 5.9092112e-39
-4.8125305 0.54149652 12.575485 1.0413064e-38
-4.8119459 0.51382744 12.590845 1.0405144e-38
-4.8120928 0.48592678 12.605776 6.5462569e-39
-4.8129711 0.45779437 12.620275 5.9117671e-39
-4.8145814 0.42943031 12.634346 5.263881e-39
-4.7988029 0.55564505 12.535047 1.1061306e-38
-4.7972674 0.52827704 12.550964 9.9491995e-39
-4.796464 0.50067735 12.566453 1.0405144e-38
-4.796392 0.47284597 12.581511 6.9270009e-39
-4.7970514 0.44478288 12.596141 5.263881e-39
-3.9525645 0.023673521 11.574421 2.2683007e-38
-3.9238448 0.01230442 11.58159 2.2866678e-38
-3.867346 0.0042910175 11.624005 2.2866678e-38
-3.8375831 -0.0047130431 11.629683 2.2866678e-38
-3.8081226 -0.01440268 11.635792 2.2866678e-38
-3.7461746 -0.01006333 11.67042 2.3050708e-38
-3.7156708 -0.017387928 11.675037 2.3142544e-38
-4.8446155 0.12416935 12.75525 1.6507334e-38
-4.8452764 0.094321743 12.774748 1.7804956e-38
-4.8232379 0.10822366 12.731589 1.6323332e-38
-4.8016229 0.12194213 12.688159 1.6322955e-38
-4.800962 0.092666939 12.708506 1.6885167e-38
-2.7683187 0.91337633 12.042011 2.1580981e-38
-2.7685773 0.89364624 12.045895 2.222383e-38
-2.7690117 0.87395769 12.050009 2.2315665e-38
-2.7520773 0.9748376 12.043056 1.8350913e-38
-2.7517753 0.95497513 12.046198 1.4374e-38
-2.7516487 0.93515414 12.049572 1.9087749e-38
-2.7516975 0.91537452 12.053179 2.1305116e-38
-2.7519224 0.89563644 12.057016 2.1764652e-38
-2.7523224 0.87593973 12.061086 2.2040159e-38
-2.7528982 0.85628456 12.065387 2.2683007e-38
-2.7536495 0.83667076 12.06992 2.2683007e-38
-2.7361836 0.99679863 12.05164 7.203215e-39
-2.7356718 0.97688663 12.054506 1.9558805e-38
-2.7353354 0.95701611 12.057604 1.7996166e-38
-2.7351747 0.93718702 12.060933 2.0017623e-38
-2.7351894 0.91739941 12.064494 2.1213281e-38
-2.7353797 0.89765316 12.068287 2.1672817e-38
-2.7357457 0.87794846 12.072311 2.1948323e-38
-2.7362874 0.85828513 12.076567 2.2683007e-38
-2.7370045 0.83866328 12.081055 2.2683007e-38
-2.7378972 0.81908292 12.085773 2.2774843e-38
-2.7206466 1.0188439 12.060696 1.0670937e-38
-2.7199249 0.99888235 12.063285 7.0188223e-39
-2.7193787 0.9789623 12.066106 2.00187e-38
-2.7190082 0.95908368 12.069159 2.0478238e-38
-2.7188132 0.93924654 12.072443 2.0662268e-38
-2.7187939 0.91945082 12.075958 2.0845939e-38
-2.71895 0.89969653 12.079706 2.0937774e-38
-2.7192817 0.87998372 12.083685 2.2407501e-38
-2.719789 0.86031234 12.087896 2.2683007e-38
